ncols 426
nrows 32
xllcorner    455002
yllcorner    345186
cellsize     2
NODATA_value -9999
68.426 68.391 68.431 68.621 68.729 68.876 68.971 69.104 69.221 69.379 69.479 69.401 69.459 69.474 69.529 69.601 69.666 69.716 69.759 69.824 69.876 70.344 70.311 70.434 70.424 70.116 70.181 70.414 71.004 70.869 71.174 71.134 70.801 70.549 70.584 70.946 71.496 71.351 70.779 70.814 71.019 71.181 70.969 71.211 71.716 75.921 77.259 77.221 76.816 77.124 77.149 76.399 77.751 77.809 75.346 72.291 71.871 71.809 71.874 71.924 71.941 71.946 71.976 72.779 73.024 72.911 72.886 72.669 72.794 74.289 75.074 73.541 72.269 73.306 75.556 76.359 77.104 76.726 75.939 73.761 73.149 72.026 71.881 71.716 71.589 71.586 71.524 71.529 71.524 71.471 71.469 71.526 71.506 71.529 71.531 71.569 71.539 71.534 71.441 71.451 71.479 71.494 71.486 71.524 71.689 71.746 71.641 71.646 71.666 71.696 71.774 71.841 72.676 74.279 72.456 72.519 72.301 72.114 72.184 72.264 72.321 72.321 72.429 72.409 72.391 72.396 72.474 73.619 75.964 77.646 78.244 78.806 79.036 79.279 79.549 79.809 80.109 80.716 80.821 80.779 80.574 80.314 80.056 79.834 79.586 79.341 78.021 74.269 75.161 74.924 74.926 74.971 74.939 75.084 75.216 75.344 75.581 76.381 76.091 76.124 76.234 76.181 76.474 76.961 77.044 77.051 77.074 77.041 77.119 77.251 77.056 77.181 77.211 77.284 77.409 77.511 80.636 84.126 83.321 81.096 78.439 77.661 78.361 79.321 80.186 80.029 79.961 79.911 79.896 79.939 79.846 79.779 79.806 79.809 79.744 79.721 79.744 79.711 79.784 79.846 79.886 79.919 79.956 79.994 80.044 80.099 80.124 80.176 80.211 80.249 80.289 80.314 80.361 80.386 80.419 80.491 80.506 80.544 80.581 80.621 80.684 80.711 80.731 80.779 80.796 80.814 80.839 80.869 81.081 81.599 82.339 83.001 83.119 83.151 83.121 83.116 83.096 83.129 83.126 83.144 83.166 83.139 83.156 83.169 83.174 83.194 83.179 83.184 83.216 83.204 83.221 83.236 83.229 83.221 83.216 83.256 83.251 83.246 83.269 83.254 83.266 83.291 83.289 83.309 83.281 83.319 83.351 83.704 84.814 86.116 87.086 86.929 87.206 87.644 87.901 88.039 88.201 88.299 88.354 88.459 88.541 88.694 88.834 88.946 89.064 89.129 89.216 89.284 89.409 89.504 89.571 89.624 89.699 89.749 89.821 89.901 90.006 90.086 90.164 90.169 90.194 90.259 90.269 90.351 90.381 90.419 90.459 90.519 90.561 90.589 90.631 90.671 90.711 90.746 90.771 90.776 90.774 90.764 90.761 90.744 90.746 90.736 90.699 90.719 90.694 90.706 90.706 90.656 90.611 90.574 90.519 90.504 90.474 90.464 90.424 90.391 90.374 90.356 90.339 90.321 90.324 90.301 90.266 90.254 90.219 90.196 90.206 90.201 90.186 90.186 90.196 90.241 90.259 90.279 90.259 90.249 90.234 90.224 90.239 90.246 90.241 90.239 90.279 90.279 90.306 90.296 90.249 90.191 90.169 90.166 90.194 90.211 90.256 90.299 90.341 90.354 90.359 90.361 90.346 90.361 90.404 90.411 90.389 90.396 90.396 90.371 90.376 90.374 90.384 90.419 90.429 90.411 90.406 90.386 90.349 90.314 90.286 90.271 90.271 90.259 90.241 90.241 90.206 90.199 90.194 90.206 90.201 90.239 90.251 90.291 90.281 90.276 90.261 90.224 90.256 90.306 90.311 90.309 90.321 90.311 90.324 90.316 90.324 90.336 90.344 90.349
68.564 68.561 68.524 68.681 68.839 69.046 69.464 70.879 70.789 69.189 69.206 69.314 69.379 69.466 69.551 69.636 69.831 69.744 69.826 69.871 69.976 70.279 70.534 71.106 70.741 70.134 70.166 70.514 70.864 70.859 70.726 71.269 71.091 70.551 70.634 70.774 71.636 71.059 70.781 70.819 70.871 70.981 71.034 71.159 71.381 73.729 76.501 77.339 75.776 76.221 77.374 76.494 77.391 78.171 75.869 72.841 71.991 71.854 71.999 71.976 72.014 72.039 72.056 72.291 73.814 73.129 74.326 72.654 72.749 72.841 73.071 72.966 71.994 72.714 75.376 76.164 76.964 76.944 76.141 75.321 71.864 71.824 71.746 71.604 71.596 71.589 71.559 71.579 71.486 71.446 71.481 71.469 71.471 71.496 71.489 71.551 71.481 71.424 71.384 71.446 71.499 71.469 71.471 71.856 72.419 72.214 71.676 71.761 71.774 71.786 71.836 71.846 72.209 74.464 72.464 72.339 72.271 72.264 72.284 72.306 72.394 73.021 73.556 73.721 75.059 76.409 75.689 75.236 78.829 79.101 79.346 79.589 79.839 80.091 80.331 80.384 80.324 80.484 80.284 80.019 79.791 79.526 79.286 79.049 76.649 76.219 74.434 74.566 75.286 74.979 74.886 74.949 74.956 75.081 75.424 75.371 75.871 75.749 75.794 75.886 76.009 76.324 76.379 77.006 77.064 77.041 77.164 77.749 77.891 78.379 79.629 77.639 77.154 77.256 77.336 77.464 78.556 77.609 77.604 77.729 78.331 77.854 78.039 79.196 80.164 80.944 80.004 79.929 79.921 79.946 79.944 79.811 79.819 79.826 79.774 79.714 79.774 79.786 79.829 79.861 79.864 79.939 79.964 80.004 80.066 80.094 80.124 80.169 80.211 80.231 80.296 80.336 80.379 80.414 80.454 80.461 80.524 80.569 80.596 80.644 80.666 80.706 80.739 80.766 80.801 80.826 80.861 80.921 81.256 81.736 82.384 82.971 83.081 83.136 83.116 83.096 83.094 83.081 83.119 83.124 83.134 83.141 83.141 83.154 83.169 83.164 83.169 83.164 83.191 83.199 83.171 83.216 83.219 83.221 83.216 83.236 83.229 83.239 83.254 83.269 83.266 83.256 83.244 83.271 83.286 83.289 83.354 83.541 84.519 85.794 86.879 86.844 87.059 87.476 87.759 87.959 88.116 88.176 88.261 88.341 88.444 88.554 88.689 88.806 88.921 88.996 89.076 89.161 89.246 89.349 89.434 89.509 89.584 89.649 89.736 89.799 89.899 89.991 90.061 90.089 90.111 90.179 90.171 90.259 90.314 90.364 90.401 90.449 90.504 90.526 90.544 90.611 90.636 90.674 90.709 90.711 90.711 90.696 90.689 90.681 90.696 90.656 90.654 90.631 90.641 90.616 90.611 90.631 90.594 90.534 90.484 90.451 90.439 90.424 90.381 90.351 90.344 90.324 90.276 90.281 90.256 90.249 90.241 90.241 90.196 90.176 90.179 90.164 90.149 90.134 90.151 90.179 90.191 90.194 90.189 90.191 90.189 90.189 90.221 90.191 90.204 90.201 90.236 90.264 90.261 90.246 90.221 90.181 90.131 90.129 90.149 90.181 90.201 90.224 90.264 90.274 90.314 90.311 90.329 90.329 90.371 90.376 90.349 90.336 90.351 90.346 90.331 90.319 90.361 90.364 90.359 90.361 90.336 90.329 90.284 90.259 90.209 90.176 90.154 90.159 90.156 90.141 90.154 90.126 90.126 90.164 90.161 90.166 90.189 90.199 90.211 90.189 90.139 90.136 90.176 90.214 90.206 90.209 90.199 90.201 90.211 90.229 90.236 90.254 90.281 90.291
70.041 69.071 68.729 69.164 70.991 70.074 70.229 69.759 69.116 69.171 69.271 69.364 69.454 69.506 69.564 70.099 70.779 70.134 69.854 69.869 69.911 69.911 70.049 70.121 70.476 70.311 70.206 70.381 71.381 71.119 70.769 71.034 71.021 70.656 70.609 70.674 71.046 71.599 71.091 70.836 70.916 71.019 71.059 71.161 72.239 74.291 75.881 77.284 76.369 75.871 77.339 76.679 75.729 74.719 74.256 72.951 72.019 71.946 71.976 72.009 72.034 72.036 72.004 72.094 73.139 72.949 72.936 72.696 72.654 72.926 73.094 73.001 72.161 71.851 74.846 75.969 76.756 77.051 76.329 75.521 72.769 72.219 72.091 71.624 71.629 71.584 71.611 71.559 71.504 71.479 71.514 71.476 71.424 71.449 71.501 71.514 71.421 71.384 71.411 71.396 71.389 71.429 71.524 71.756 71.741 73.464 73.521 72.494 71.791 71.856 71.851 71.884 71.914 73.911 72.309 71.924 72.689 73.264 74.336 75.651 75.871 76.984 77.519 77.694 77.869 78.036 77.831 72.409 79.191 79.879 80.126 80.324 80.379 80.249 80.011 79.776 79.529 79.519 79.504 79.219 78.476 76.751 75.904 73.939 74.339 74.591 74.619 74.799 74.976 75.034 74.939 74.986 74.956 75.071 75.641 75.754 75.779 75.834 75.714 75.776 75.984 75.966 76.141 76.691 77.484 79.494 80.526 82.531 82.896 83.131 81.761 78.531 77.154 77.189 77.344 77.451 77.539 77.591 77.629 77.794 78.649 77.744 77.841 78.759 80.691 80.341 80.066 80.041 79.961 79.994 79.969 79.859 79.814 79.844 79.784 79.749 79.771 79.824 79.829 79.876 79.881 79.919 79.931 80.011 80.056 80.116 80.154 80.176 80.219 80.271 80.289 80.309 80.344 80.416 80.469 80.451 80.516 80.571 80.609 80.639 80.664 80.711 80.719 80.789 80.809 80.836 80.849 80.971 81.439 82.124 82.704 83.046 83.076 83.109 83.116 83.094 83.091 83.066 83.094 83.086 83.116 83.089 83.139 83.149 83.149 83.156 83.146 83.144 83.156 83.174 83.169 83.189 83.186 83.194 83.214 83.209 83.194 83.239 83.216 83.194 83.246 83.239 83.259 83.244 83.256 83.256 83.314 83.371 84.164 85.439 86.689 86.814 86.911 87.299 87.661 87.859 88.006 88.059 88.134 88.201 88.286 88.409 88.516 88.656 88.751 88.869 88.941 89.006 89.091 89.221 89.296 89.391 89.459 89.536 89.601 89.704 89.781 89.869 89.966 89.994 90.014 90.076 90.136 90.191 90.254 90.296 90.331 90.371 90.446 90.476 90.496 90.526 90.589 90.614 90.649 90.666 90.656 90.631 90.619 90.624 90.651 90.604 90.586 90.571 90.571 90.574 90.584 90.571 90.551 90.506 90.449 90.421 90.411 90.381 90.331 90.304 90.299 90.276 90.234 90.216 90.191 90.194 90.201 90.191 90.189 90.149 90.126 90.119 90.104 90.086 90.099 90.111 90.136 90.146 90.149 90.151 90.156 90.156 90.186 90.176 90.191 90.199 90.201 90.179 90.209 90.169 90.164 90.141 90.084 90.069 90.091 90.129 90.139 90.169 90.216 90.239 90.266 90.249 90.261 90.294 90.314 90.309 90.296 90.264 90.294 90.301 90.289 90.276 90.291 90.299 90.294 90.294 90.271 90.236 90.226 90.174 90.124 90.111 90.074 90.094 90.101 90.074 90.066 90.064 90.079 90.089 90.101 90.106 90.134 90.134 90.139 90.109 90.081 90.041 90.081 90.111 90.104 90.129 90.126 90.121 90.131 90.144 90.144 90.159 90.179 90.189
69.799 70.391 71.174 70.489 69.864 68.971 69.016 69.109 69.144 69.244 69.334 69.414 69.479 69.569 69.599 69.816 70.439 70.721 69.981 69.856 69.914 69.954 70.079 70.589 71.161 70.596 70.266 70.306 71.011 71.214 70.514 70.576 71.051 70.904 70.651 70.694 71.269 71.189 70.984 70.884 71.076 72.519 73.801 73.909 74.511 74.556 75.374 77.011 76.899 75.591 76.779 77.169 75.951 74.364 72.839 72.151 72.001 71.984 72.071 72.114 72.064 72.109 72.111 72.136 73.009 72.914 72.964 72.801 72.676 72.764 72.981 73.769 72.449 71.721 74.201 75.769 76.559 77.134 76.534 75.744 74.494 72.326 71.994 71.671 71.626 71.596 71.584 71.546 71.524 71.491 71.449 71.409 71.406 71.434 71.434 71.406 71.329 71.389 71.404 71.384 71.391 71.546 71.551 71.574 71.601 72.484 71.996 71.759 71.854 71.904 72.006 72.111 72.231 74.256 74.716 75.056 76.916 77.304 77.686 77.836 78.009 78.181 78.346 78.524 78.671 78.846 79.026 72.656 78.759 80.316 80.171 79.946 79.716 79.476 79.229 78.984 78.724 78.131 77.106 74.761 73.924 73.829 73.924 74.074 74.389 74.521 74.831 75.524 75.586 75.199 74.974 74.989 74.996 75.024 75.331 76.276 75.764 75.529 75.519 75.624 75.804 75.919 75.821 79.109 82.594 83.161 83.459 83.724 83.964 83.859 82.809 78.331 77.099 77.189 77.294 77.429 77.546 79.531 80.861 82.901 83.504 78.961 77.731 78.616 80.121 80.684 80.134 80.064 80.069 80.021 79.984 79.921 79.844 79.846 79.791 79.769 79.794 79.826 79.831 79.851 79.884 79.931 79.956 80.021 80.056 80.116 80.174 80.199 80.236 80.279 80.304 80.324 80.371 80.419 80.466 80.511 80.526 80.554 80.621 80.666 80.676 80.711 80.724 80.776 80.809 80.831 80.856 81.044 81.616 82.354 82.929 83.056 83.079 83.096 83.114 83.071 83.066 83.089 83.079 83.079 83.094 83.101 83.116 83.094 83.116 83.121 83.144 83.134 83.159 83.161 83.161 83.159 83.161 83.171 83.196 83.194 83.169 83.199 83.201 83.186 83.221 83.224 83.226 83.216 83.234 83.229 83.291 83.321 83.916 85.106 86.359 86.851 86.849 87.106 87.516 87.769 87.899 87.949 88.004 88.084 88.181 88.264 88.371 88.494 88.604 88.711 88.811 88.886 88.969 89.111 89.209 89.284 89.346 89.406 89.481 89.581 89.654 89.751 89.836 89.914 89.951 89.989 90.039 90.111 90.169 90.224 90.259 90.336 90.381 90.391 90.444 90.481 90.514 90.569 90.596 90.606 90.584 90.549 90.561 90.574 90.569 90.531 90.529 90.501 90.494 90.529 90.509 90.526 90.501 90.459 90.406 90.376 90.374 90.344 90.294 90.274 90.266 90.226 90.191 90.164 90.161 90.154 90.171 90.164 90.131 90.101 90.094 90.071 90.056 90.051 90.056 90.089 90.079 90.081 90.094 90.096 90.099 90.096 90.124 90.136 90.126 90.141 90.141 90.121 90.129 90.129 90.141 90.124 90.061 90.034 90.046 90.066 90.104 90.136 90.169 90.199 90.209 90.236 90.229 90.251 90.229 90.241 90.249 90.244 90.261 90.254 90.259 90.234 90.241 90.244 90.226 90.241 90.204 90.201 90.169 90.109 90.081 90.054 90.024 90.049 90.054 90.041 90.036 90.024 90.014 90.014 90.041 90.031 90.064 90.066 90.049 89.999 89.981 89.959 89.989 90.011 90.031 90.051 90.044 90.061 90.069 90.081 90.076 90.074 90.076 90.084
68.644 68.711 69.126 68.864 68.939 68.969 69.071 69.139 69.214 69.311 69.394 69.471 69.521 69.581 69.654 69.739 69.946 69.856 69.879 69.936 69.989 70.009 70.056 70.146 70.229 70.356 70.316 70.359 70.409 70.779 71.049 70.721 71.529 70.909 70.669 70.699 70.701 71.029 72.636 73.106 73.791 74.164 74.451 74.524 74.506 74.524 74.819 76.466 77.311 75.994 76.354 77.396 76.084 74.476 73.064 72.449 72.211 72.101 72.069 72.121 72.071 72.106 72.179 72.144 72.291 73.014 72.976 72.949 72.739 72.849 73.114 73.439 73.454 72.326 73.684 75.544 76.356 77.139 76.739 75.939 75.096 72.126 72.129 71.734 71.631 71.596 71.571 71.559 71.546 71.504 71.476 71.449 71.489 71.419 71.409 71.334 71.301 71.411 71.359 71.366 71.434 71.556 71.531 71.551 71.514 71.534 71.514 72.174 73.596 74.661 76.249 76.476 76.711 77.186 77.376 77.534 77.709 78.059 78.501 78.654 78.814 78.976 79.149 79.221 79.299 79.326 79.216 75.724 76.449 79.679 79.446 79.174 78.931 78.696 77.419 76.984 74.606 74.734 73.464 73.529 73.699 73.876 74.016 74.129 74.896 74.824 74.949 76.129 76.489 76.441 75.051 74.991 75.019 75.074 75.464 75.869 75.634 75.631 77.739 77.981 76.229 77.066 75.936 79.299 84.021 84.299 84.359 84.354 84.124 83.786 83.059 78.874 77.046 77.126 77.216 77.404 77.551 81.694 84.426 84.901 83.766 79.309 77.736 78.301 79.871 80.261 80.364 80.099 80.124 80.016 80.066 79.939 79.839 79.866 79.796 79.769 79.799 79.796 79.846 79.876 79.924 79.946 79.959 79.991 80.069 80.111 80.159 80.189 80.224 80.274 80.321 80.361 80.379 80.409 80.459 80.526 80.556 80.571 80.611 80.636 80.674 80.686 80.709 80.744 80.761 80.819 80.839 80.986 81.509 82.341 82.879 83.029 83.021 83.034 83.024 83.056 83.051 83.071 83.071 83.054 83.099 83.066 83.074 83.036 83.106 83.076 83.111 83.126 83.139 83.116 83.121 83.154 83.161 83.131 83.156 83.164 83.169 83.189 83.161 83.179 83.211 83.191 83.229 83.211 83.244 83.249 83.276 83.294 83.656 84.741 86.046 86.874 86.769 86.966 87.376 87.694 87.809 87.869 87.924 87.976 88.034 88.131 88.216 88.359 88.479 88.591 88.686 88.786 88.864 88.964 89.079 89.171 89.231 89.281 89.361 89.431 89.556 89.644 89.701 89.811 89.871 89.919 89.959 90.026 90.099 90.134 90.189 90.231 90.291 90.339 90.346 90.421 90.456 90.486 90.499 90.526 90.516 90.494 90.509 90.526 90.524 90.504 90.486 90.464 90.429 90.454 90.469 90.476 90.461 90.421 90.344 90.321 90.304 90.286 90.261 90.239 90.239 90.199 90.186 90.141 90.141 90.119 90.109 90.104 90.094 90.069 90.046 90.024 90.044 90.029 90.031 90.056 90.061 90.059 90.036 90.071 90.066 90.071 90.079 90.091 90.094 90.099 90.094 90.084 90.079 90.084 90.106 90.089 90.029 89.996 90.009 90.044 90.066 90.081 90.119 90.161 90.179 90.169 90.179 90.194 90.201 90.214 90.239 90.211 90.229 90.209 90.216 90.181 90.184 90.189 90.164 90.159 90.139 90.149 90.111 90.059 90.041 90.009 89.999 89.989 89.996 89.994 89.976 89.961 89.941 89.944 89.949 89.971 89.976 89.981 89.946 89.916 89.916 89.896 89.916 89.944 89.991 89.981 89.999 89.996 89.971 89.984 89.989 89.979 89.969 89.966
68.624 68.694 68.784 68.904 68.969 69.004 69.091 69.214 69.286 69.371 69.474 69.531 69.566 69.634 69.719 69.726 69.959 70.239 70.086 69.989 70.026 70.094 70.136 70.194 70.606 71.156 70.596 70.386 70.536 71.099 71.164 70.886 71.091 71.451 70.621 70.661 71.049 73.941 75.334 74.454 74.399 74.546 74.526 74.479 74.569 73.949 73.529 75.916 77.426 76.296 75.659 77.176 76.621 74.829 74.054 72.861 72.541 72.189 72.089 72.149 72.184 72.191 72.201 72.149 72.239 72.744 75.994 76.224 73.224 72.749 72.914 73.036 72.881 71.919 71.856 75.346 76.146 76.944 76.934 76.144 75.336 71.746 71.724 71.699 71.629 71.626 71.596 71.571 71.569 71.504 71.471 71.466 71.416 71.401 71.324 71.271 71.316 71.316 71.301 71.354 71.474 71.534 71.514 71.496 74.469 75.461 75.649 76.111 76.929 77.359 77.514 77.709 77.851 78.019 78.201 78.366 78.534 78.764 79.234 79.331 79.299 79.244 79.129 78.984 78.804 78.631 78.471 75.914 74.824 78.871 78.531 77.796 76.359 74.761 73.231 73.831 74.091 73.344 73.591 73.784 73.964 74.009 74.194 74.236 74.691 74.966 74.844 75.149 75.669 75.376 75.256 75.016 75.064 75.046 75.156 77.119 80.356 80.681 81.651 82.004 77.526 75.529 75.594 77.354 84.091 83.824 83.546 83.274 82.896 81.584 81.611 78.476 77.006 77.049 77.131 77.489 77.634 81.211 84.171 84.961 84.024 80.319 77.884 78.204 79.414 80.094 80.474 80.171 80.061 80.101 80.034 79.951 79.849 79.856 79.821 79.789 79.804 79.836 79.854 79.899 79.926 79.936 79.971 80.036 80.094 80.114 80.161 80.206 80.244 80.266 80.329 80.359 80.381 80.389 80.446 80.456 80.511 80.534 80.586 80.619 80.644 80.656 80.669 80.686 80.711 80.746 80.766 80.846 81.391 82.184 82.889 82.994 83.001 83.036 83.084 83.041 83.051 83.054 83.041 83.041 83.079 83.069 83.061 83.061 83.061 83.061 83.081 83.104 83.111 83.099 83.134 83.144 83.124 83.134 83.159 83.146 83.136 83.169 83.154 83.176 83.191 83.199 83.209 83.201 83.244 83.211 83.276 83.259 83.481 84.376 85.606 86.751 86.719 86.854 87.224 87.594 87.729 87.781 87.794 87.854 87.924 87.989 88.106 88.221 88.359 88.456 88.579 88.644 88.724 88.824 88.921 89.006 89.094 89.161 89.226 89.314 89.441 89.536 89.631 89.729 89.801 89.814 89.864 89.939 89.994 90.039 90.126 90.144 90.196 90.241 90.309 90.339 90.361 90.394 90.439 90.436 90.439 90.436 90.454 90.474 90.461 90.469 90.451 90.411 90.414 90.404 90.424 90.421 90.421 90.394 90.359 90.289 90.256 90.244 90.246 90.194 90.181 90.186 90.144 90.126 90.114 90.086 90.069 90.084 90.051 90.034 90.019 90.016 90.011 90.019 90.031 90.044 90.051 90.039 90.016 90.014 90.019 90.021 90.029 90.014 90.039 90.024 89.996 90.006 90.014 90.026 90.034 90.019 89.976 89.974 89.999 90.001 90.006 90.054 90.074 90.106 90.144 90.151 90.159 90.166 90.186 90.169 90.181 90.164 90.154 90.166 90.166 90.154 90.151 90.126 90.109 90.101 90.094 90.091 90.071 90.044 90.011 89.976 89.946 89.949 89.919 89.914 89.911 89.909 89.899 89.866 89.856 89.861 89.889 89.881 89.846 89.831 89.849 89.834 89.839 89.889 89.891 89.896 89.899 89.906 89.881 89.889 89.864 89.874 89.859 89.849
68.629 68.746 68.859 68.941 69.006 69.094 69.186 69.281 69.366 69.439 69.519 69.581 69.624 69.661 69.744 69.769 70.324 70.404 69.984 70.009 70.086 70.121 70.169 70.224 70.526 70.386 70.369 70.429 70.434 70.526 70.726 70.681 70.546 70.591 70.624 70.679 70.686 73.681 75.849 75.054 73.809 74.546 74.539 74.499 74.584 73.256 72.171 75.419 77.069 76.881 75.469 76.711 77.166 75.441 74.834 75.184 73.714 72.224 72.231 72.279 72.431 72.236 72.264 72.184 72.219 72.576 74.579 73.074 75.254 72.854 72.971 73.344 73.651 72.109 71.756 74.934 75.951 76.749 77.071 76.344 75.561 72.894 71.864 72.019 71.869 71.891 71.796 71.584 71.574 71.511 71.416 71.404 71.401 71.346 71.266 71.251 71.301 71.286 71.254 71.359 71.459 71.471 71.794 71.509 76.316 77.106 77.241 77.414 77.634 78.164 78.321 78.491 78.659 78.834 78.889 78.881 78.846 78.706 78.946 78.814 78.644 78.479 78.356 78.191 77.999 77.839 77.649 76.064 72.556 75.194 74.501 73.284 74.374 73.289 73.276 73.331 73.446 73.491 73.806 73.946 74.116 74.161 74.281 74.341 74.646 74.631 74.901 75.009 75.704 75.349 75.679 75.021 75.054 75.059 75.114 79.144 81.886 82.444 82.744 82.886 78.799 75.499 75.584 75.829 82.286 82.279 81.381 78.221 78.469 77.431 77.266 76.881 76.874 76.969 77.096 77.421 77.701 81.074 83.934 84.911 84.271 82.691 77.871 77.939 78.966 79.939 80.861 80.166 80.141 80.034 80.006 79.961 79.876 79.836 79.836 79.796 79.796 79.814 79.831 79.881 79.956 79.971 80.011 80.064 80.066 80.101 80.151 80.186 80.201 80.269 80.306 80.336 80.359 80.411 80.419 80.454 80.464 80.506 80.574 80.586 80.579 80.589 80.611 80.621 80.641 80.676 80.719 80.764 81.186 81.941 82.749 82.959 83.001 83.014 83.064 83.019 83.034 83.009 83.006 83.026 83.036 83.036 83.044 83.051 83.061 83.079 83.081 83.089 83.121 83.126 83.101 83.119 83.114 83.119 83.106 83.126 83.129 83.156 83.126 83.181 83.164 83.154 83.199 83.181 83.209 83.199 83.209 83.281 83.321 84.076 85.226 86.451 86.744 86.754 87.109 87.469 87.619 87.649 87.676 87.729 87.811 87.879 88.006 88.106 88.224 88.344 88.461 88.524 88.589 88.696 88.796 88.884 88.964 89.041 89.114 89.186 89.311 89.401 89.521 89.614 89.704 89.761 89.786 89.849 89.886 89.974 90.014 90.059 90.101 90.156 90.204 90.234 90.251 90.294 90.339 90.354 90.364 90.381 90.391 90.406 90.404 90.439 90.426 90.376 90.359 90.381 90.384 90.379 90.384 90.371 90.326 90.271 90.241 90.226 90.221 90.176 90.144 90.114 90.076 90.066 90.076 90.054 90.039 90.056 90.051 90.029 90.004 89.994 89.991 89.989 90.006 90.029 90.011 89.991 89.959 89.956 89.979 89.966 89.971 89.959 89.951 89.959 89.929 89.924 89.934 89.944 89.941 89.934 89.936 89.946 89.966 89.991 89.991 90.016 90.044 90.079 90.099 90.131 90.149 90.146 90.134 90.149 90.159 90.141 90.106 90.134 90.126 90.081 90.086 90.076 90.036 90.029 90.034 90.041 90.039 89.996 89.936 89.934 89.896 89.864 89.841 89.834 89.799 89.811 89.789 89.759 89.754 89.784 89.789 89.796 89.786 89.776 89.769 89.764 89.764 89.806 89.796 89.799 89.779 89.776 89.789 89.799 89.781 89.779 89.749 89.744
68.656 68.766 68.879 68.994 69.094 69.144 69.259 69.339 69.446 69.514 69.614 69.646 69.674 69.716 69.751 69.864 69.874 69.959 69.989 70.021 70.091 70.186 70.431 71.014 70.689 70.879 71.124 70.391 70.431 70.486 70.506 70.516 70.569 70.586 70.616 70.659 71.304 71.594 75.274 75.649 73.381 74.619 74.574 74.554 74.491 74.504 71.624 73.779 76.491 77.306 75.676 76.059 77.194 75.446 74.314 73.349 72.446 73.116 72.271 72.246 73.144 72.404 72.299 72.236 72.214 72.426 72.666 72.896 72.896 72.861 72.986 73.784 76.081 72.421 71.661 74.086 75.744 76.541 77.169 76.609 75.899 73.599 72.391 72.801 72.186 72.211 71.836 71.561 71.544 71.494 71.471 71.374 71.376 71.319 71.229 71.269 71.291 71.219 71.256 71.391 71.659 72.794 72.316 71.604 76.264 77.916 78.076 78.229 78.391 78.806 78.886 78.781 78.651 78.536 78.356 78.191 78.041 77.884 78.069 78.001 77.839 77.669 77.499 76.344 74.964 74.799 73.789 72.699 72.994 73.311 72.964 73.064 73.364 73.379 73.391 73.446 73.524 73.579 73.929 74.186 74.444 74.286 74.346 74.379 74.926 74.584 74.929 75.211 76.161 75.304 75.479 75.061 75.051 75.096 75.106 77.796 81.764 82.634 82.461 82.156 80.411 75.529 75.586 75.621 77.096 77.849 76.984 76.959 78.669 77.264 77.399 76.854 76.844 76.939 77.119 77.286 77.539 78.091 83.746 84.806 84.521 83.061 78.001 77.826 78.774 79.664 80.414 80.254 80.079 80.026 80.039 79.989 79.964 79.854 79.851 79.819 79.804 79.859 79.859 79.886 79.946 79.954 79.999 80.036 80.054 80.094 80.134 80.171 80.206 80.236 80.289 80.309 80.354 80.384 80.399 80.416 80.416 80.446 80.486 80.506 80.531 80.551 80.544 80.571 80.611 80.654 80.659 80.701 80.959 81.641 82.499 82.961 82.984 82.994 82.974 82.969 82.996 83.006 82.994 83.011 83.006 83.029 83.044 83.046 83.059 83.036 83.044 83.069 83.064 83.084 83.071 83.099 83.074 83.084 83.101 83.139 83.129 83.136 83.126 83.144 83.121 83.124 83.151 83.186 83.159 83.191 83.204 83.219 83.211 83.784 84.866 86.004 86.789 86.684 86.956 87.371 87.554 87.576 87.579 87.659 87.729 87.789 87.901 88.004 88.089 88.224 88.336 88.409 88.484 88.556 88.671 88.761 88.836 88.921 89.019 89.111 89.204 89.291 89.419 89.481 89.584 89.644 89.674 89.746 89.806 89.844 89.901 89.949 89.974 90.044 90.096 90.131 90.149 90.189 90.234 90.254 90.309 90.331 90.336 90.356 90.364 90.381 90.366 90.339 90.301 90.304 90.311 90.326 90.316 90.319 90.311 90.269 90.216 90.191 90.166 90.144 90.096 90.069 90.031 90.011 89.991 90.014 90.006 90.049 90.014 89.996 89.979 89.976 89.971 89.976 89.969 89.984 89.956 89.956 89.911 89.906 89.896 89.891 89.884 89.881 89.864 89.859 89.854 89.859 89.886 89.861 89.891 89.891 89.911 89.931 89.916 89.934 89.954 89.986 90.006 90.044 90.089 90.111 90.104 90.101 90.104 90.116 90.111 90.096 90.064 90.079 90.081 90.056 90.026 89.989 89.974 89.969 89.966 89.976 89.959 89.929 89.884 89.864 89.834 89.801 89.781 89.749 89.711 89.716 89.724 89.699 89.699 89.696 89.721 89.699 89.709 89.734 89.686 89.689 89.676 89.676 89.699 89.699 89.699 89.696 89.704 89.704 89.696 89.704 89.671 89.664
68.716 68.806 68.924 69.054 69.134 69.206 69.294 69.364 69.456 69.541 69.611 69.626 69.709 69.784 69.824 69.864 69.911 69.954 70.031 70.099 70.141 70.234 70.346 71.671 72.536 73.101 72.674 70.436 70.406 70.444 70.496 70.534 70.579 70.626 70.644 70.671 70.706 70.931 74.306 75.649 74.039 74.026 74.531 74.484 74.471 74.496 72.449 72.379 75.989 77.241 75.686 74.929 75.021 72.279 71.826 71.839 72.304 74.099 72.319 72.206 73.639 72.451 72.284 72.261 72.276 72.391 72.571 72.756 72.866 72.891 72.914 73.046 75.459 75.084 72.719 73.431 75.539 76.931 78.079 78.661 77.951 76.564 71.751 71.666 71.659 71.631 71.564 71.529 71.479 71.724 71.741 71.644 71.619 71.286 71.231 71.271 71.286 71.226 71.329 71.376 71.394 71.669 71.514 71.486 76.061 78.434 78.326 78.214 78.099 78.266 78.204 78.054 77.871 77.721 77.554 77.379 77.239 76.976 75.214 75.071 74.784 72.694 72.399 72.376 72.761 72.481 72.996 72.844 74.279 74.066 73.519 73.189 73.304 73.446 73.534 73.536 73.586 73.726 74.011 74.334 74.344 74.376 74.351 74.316 74.701 74.976 74.926 75.111 76.041 75.316 75.859 75.231 75.051 75.076 75.061 76.066 81.441 81.716 81.259 80.089 77.616 75.596 75.671 75.786 76.831 76.634 76.899 76.836 78.111 77.576 77.519 76.781 76.826 76.994 77.109 77.281 77.471 77.561 81.086 80.061 80.071 79.084 77.851 78.459 78.771 79.414 79.979 80.344 80.156 80.049 80.074 80.001 79.939 79.846 79.851 79.804 79.824 79.854 79.869 79.914 79.929 79.969 80.006 80.014 80.031 80.051 80.099 80.124 80.149 80.171 80.239 80.261 80.289 80.319 80.336 80.349 80.374 80.389 80.431 80.444 80.476 80.514 80.506 80.556 80.586 80.606 80.636 80.669 80.791 81.359 82.179 82.866 82.926 82.949 82.899 83.004 82.976 82.944 82.974 83.001 83.004 83.011 83.029 83.009 83.029 83.041 83.049 83.044 83.031 83.071 83.059 83.104 83.074 83.084 83.096 83.109 83.096 83.126 83.134 83.124 83.111 83.124 83.156 83.176 83.156 83.159 83.139 83.176 83.174 83.489 84.491 85.584 86.591 86.651 86.831 87.201 87.426 87.486 87.526 87.574 87.639 87.684 87.749 87.894 87.984 88.114 88.236 88.304 88.391 88.486 88.566 88.654 88.739 88.836 88.926 88.994 89.086 89.189 89.274 89.356 89.456 89.516 89.546 89.609 89.676 89.726 89.771 89.839 89.876 89.961 90.014 90.044 90.079 90.129 90.169 90.231 90.271 90.299 90.316 90.326 90.306 90.314 90.294 90.266 90.241 90.241 90.264 90.284 90.311 90.301 90.271 90.226 90.164 90.146 90.114 90.094 90.081 90.036 90.014 89.981 89.966 89.971 89.986 89.996 89.966 89.961 89.969 89.931 89.956 89.956 89.936 89.924 89.916 89.914 89.884 89.854 89.841 89.814 89.839 89.841 89.811 89.804 89.794 89.819 89.821 89.806 89.836 89.854 89.891 89.904 89.896 89.906 89.926 89.961 89.964 89.981 90.026 90.056 90.071 90.086 90.049 90.066 90.061 90.034 90.031 90.014 90.014 90.006 89.964 89.936 89.929 89.924 89.891 89.906 89.901 89.859 89.819 89.786 89.754 89.701 89.666 89.651 89.626 89.649 89.636 89.629 89.631 89.629 89.646 89.631 89.646 89.659 89.606 89.586 89.574 89.589 89.601 89.604 89.619 89.619 89.614 89.609 89.616 89.571 89.576 89.566
68.769 68.876 69.001 69.079 69.194 69.269 69.349 69.431 69.509 69.589 69.636 69.656 69.714 69.769 69.806 69.884 69.941 69.981 70.031 70.094 70.159 70.219 70.289 72.191 72.886 72.856 71.616 70.341 70.401 70.449 70.479 70.526 70.564 70.591 70.644 70.684 70.716 70.761 73.281 73.609 71.669 73.109 74.519 74.506 74.454 74.509 73.486 71.806 74.776 73.634 71.706 71.774 71.819 71.856 71.919 71.969 72.261 73.714 72.566 72.271 72.906 72.539 72.361 72.421 72.349 72.356 72.501 72.656 72.944 72.974 74.076 73.366 74.559 76.476 73.156 73.371 77.234 78.171 79.081 79.094 78.291 77.436 72.874 71.864 71.761 71.799 71.994 72.076 72.314 72.514 71.961 72.101 72.109 71.236 71.229 71.244 71.189 71.211 71.341 71.534 71.424 71.444 71.616 72.431 72.576 77.749 77.591 77.424 77.261 77.381 77.381 77.211 76.104 75.801 75.454 74.884 72.904 73.229 72.346 72.469 72.641 72.414 72.439 72.454 72.449 72.489 72.809 73.226 73.571 73.906 73.469 73.291 73.429 73.509 73.599 73.604 73.656 73.759 74.086 74.816 74.959 75.894 77.861 76.834 74.399 75.984 75.044 75.154 76.041 76.014 77.094 76.571 75.086 75.084 75.104 75.121 77.739 77.884 76.546 76.039 75.799 75.771 75.816 75.941 76.264 76.484 76.676 76.639 77.004 76.984 76.721 76.774 76.886 77.019 77.171 77.286 77.416 77.536 77.926 78.401 78.401 78.109 78.861 77.751 78.151 79.106 79.799 80.361 80.186 80.039 80.039 80.024 80.011 79.879 79.831 79.839 79.829 79.826 79.884 79.904 79.944 79.956 79.961 79.999 79.996 80.004 80.019 80.056 80.071 80.084 80.146 80.184 80.226 80.244 80.269 80.316 80.326 80.346 80.384 80.416 80.441 80.446 80.499 80.539 80.564 80.584 80.621 80.659 80.729 81.131 81.856 82.694 82.849 82.851 82.866 83.014 82.961 82.939 82.966 82.976 82.954 82.961 82.984 82.996 83.006 83.021 83.034 83.021 83.019 83.034 83.071 83.061 83.056 83.074 83.064 83.071 83.081 83.076 83.091 83.111 83.106 83.094 83.104 83.121 83.124 83.144 83.126 83.149 83.156 83.324 84.229 85.276 86.434 86.669 86.709 87.009 87.299 87.394 87.429 87.471 87.521 87.586 87.641 87.759 87.876 87.984 88.101 88.269 88.469 88.514 88.579 88.546 88.594 88.711 88.806 88.879 88.974 89.041 89.131 89.244 89.316 89.369 89.424 89.489 89.536 89.616 89.676 89.724 89.761 89.841 89.889 89.974 90.004 90.059 90.096 90.161 90.189 90.216 90.246 90.271 90.254 90.229 90.219 90.204 90.186 90.199 90.204 90.246 90.241 90.254 90.234 90.186 90.129 90.104 90.104 90.066 90.041 90.021 89.979 89.941 89.939 89.931 89.966 89.959 89.926 89.944 89.924 89.906 89.881 89.881 89.881 89.881 89.886 89.866 89.839 89.806 89.776 89.764 89.766 89.789 89.781 89.786 89.734 89.759 89.771 89.784 89.809 89.839 89.861 89.864 89.849 89.849 89.886 89.896 89.914 89.936 89.981 90.021 90.031 90.014 90.034 90.014 90.014 89.994 89.996 89.969 89.959 89.934 89.904 89.869 89.861 89.844 89.839 89.839 89.829 89.784 89.736 89.699 89.644 89.616 89.589 89.576 89.586 89.589 89.609 89.576 89.571 89.551 89.556 89.564 89.574 89.551 89.521 89.496 89.494 89.501 89.519 89.534 89.554 89.556 89.554 89.549 89.511 89.506 89.506 89.499
68.791 68.921 69.066 69.156 69.236 69.314 69.374 69.469 69.516 69.589 69.636 69.689 69.736 69.779 69.824 69.916 69.969 70.014 70.056 70.136 70.169 70.174 70.144 71.074 72.759 72.794 72.394 70.281 70.351 70.424 70.489 70.514 70.541 70.604 70.651 70.686 70.734 70.769 71.086 71.149 70.996 71.591 74.546 74.474 74.319 73.941 72.436 71.394 72.841 71.636 71.746 71.811 71.874 71.889 71.931 71.966 72.566 72.674 72.714 72.416 72.374 72.354 72.396 72.396 72.351 72.354 72.509 72.626 72.861 72.969 73.996 73.096 73.499 74.819 78.571 76.154 77.311 78.094 78.864 79.211 78.504 77.706 73.539 72.454 71.869 72.254 72.151 72.279 72.316 72.034 71.566 71.686 71.641 71.224 71.196 71.249 71.186 71.199 71.299 71.761 71.886 72.221 71.766 72.616 72.246 76.719 76.741 76.386 76.061 75.729 73.854 73.529 72.004 72.011 72.064 72.299 72.739 73.489 73.581 75.156 74.921 72.461 72.501 72.531 72.484 72.534 73.001 73.089 73.056 73.189 73.304 73.404 73.526 73.671 73.724 73.856 73.774 73.691 75.699 79.816 80.134 80.351 80.586 79.681 74.584 75.396 75.979 79.426 79.761 80.411 81.069 79.579 75.121 75.064 75.104 75.151 75.884 75.606 75.609 75.694 76.081 75.889 75.971 76.059 76.206 76.359 76.399 76.469 76.531 76.584 76.669 76.784 76.934 77.039 77.179 77.299 77.389 77.466 77.594 77.581 79.976 80.416 80.789 77.734 78.211 78.911 79.664 80.224 80.131 80.041 80.006 80.021 79.984 79.874 79.821 79.819 79.814 79.814 79.831 79.861 79.911 79.906 79.924 79.909 79.901 79.869 79.956 80.006 80.024 80.056 80.076 80.156 80.169 80.174 80.204 80.271 80.284 80.309 80.354 80.391 80.416 80.436 80.484 80.506 80.514 80.539 80.579 80.601 80.669 80.934 81.556 82.456 82.721 82.744 82.834 82.949 82.954 82.946 82.949 82.959 82.969 82.971 82.966 82.984 82.991 83.019 83.019 83.001 82.994 83.029 83.046 83.036 83.041 83.066 83.049 83.046 83.061 83.076 83.066 83.101 83.099 83.076 83.104 83.116 83.121 83.114 83.139 83.164 83.166 83.199 83.939 85.011 86.166 86.636 86.604 86.854 87.156 87.299 87.334 87.374 87.424 87.484 87.589 87.684 87.836 87.956 88.086 88.569 88.776 88.921 88.961 88.689 88.501 88.564 88.646 88.751 88.836 88.909 89.001 89.061 89.176 89.256 89.306 89.361 89.414 89.491 89.566 89.626 89.706 89.779 89.824 89.894 89.924 89.974 90.026 90.076 90.106 90.134 90.146 90.159 90.166 90.171 90.149 90.151 90.149 90.169 90.174 90.206 90.219 90.219 90.179 90.169 90.119 90.076 90.069 90.054 90.034 89.996 89.969 89.936 89.911 89.914 89.906 89.894 89.886 89.879 89.864 89.861 89.834 89.836 89.816 89.829 89.839 89.836 89.804 89.759 89.726 89.716 89.739 89.731 89.746 89.726 89.716 89.741 89.766 89.771 89.799 89.826 89.824 89.854 89.834 89.841 89.844 89.866 89.879 89.914 89.959 89.974 89.989 89.981 89.981 89.954 89.976 89.974 89.946 89.906 89.881 89.874 89.829 89.821 89.796 89.781 89.791 89.756 89.774 89.714 89.674 89.644 89.596 89.564 89.536 89.541 89.539 89.541 89.536 89.506 89.486 89.471 89.476 89.464 89.469 89.456 89.446 89.411 89.421 89.431 89.456 89.466 89.474 89.479 89.476 89.461 89.464 89.441 89.446 89.424
68.869 68.979 69.084 69.176 69.246 69.349 69.399 69.456 69.504 69.571 69.639 69.684 69.744 69.804 69.844 69.944 69.951 70.056 69.959 69.991 69.994 70.046 70.104 70.174 72.464 72.751 72.791 70.929 70.329 70.404 70.444 70.476 70.556 70.624 70.644 70.669 70.709 70.796 70.874 70.926 71.001 71.034 72.781 72.181 71.341 71.241 71.296 71.396 74.424 73.244 71.761 71.834 71.854 71.899 72.021 72.066 72.016 73.179 73.146 72.479 72.361 72.374 72.429 72.456 72.424 72.379 72.516 72.671 72.714 72.851 72.741 72.719 73.286 75.119 75.671 71.759 75.471 77.886 78.674 79.266 78.706 77.899 74.421 72.186 72.186 72.124 71.779 71.671 71.536 71.454 71.439 71.404 71.294 71.211 71.194 71.224 71.159 71.229 71.329 71.439 72.444 71.686 71.989 71.536 72.076 74.061 73.111 71.496 71.539 71.614 71.709 71.839 71.964 72.086 72.244 72.379 72.431 76.956 78.766 79.381 78.279 73.294 72.569 72.599 72.589 72.539 72.856 73.076 73.161 73.234 73.491 73.549 73.689 74.746 78.799 79.369 76.099 73.754 74.319 80.739 81.269 81.471 81.474 80.919 74.496 74.759 78.749 81.534 81.791 81.989 82.236 80.806 75.176 75.089 75.124 75.121 75.261 75.694 75.641 75.674 76.004 75.871 75.951 75.981 76.079 76.176 76.269 76.394 76.464 76.591 76.689 76.751 76.891 76.986 77.111 77.216 77.356 77.564 78.461 83.249 84.849 84.316 82.049 77.849 77.986 78.966 79.634 80.286 80.209 80.114 80.076 80.051 80.036 79.924 79.779 79.811 79.791 79.776 79.784 79.814 79.829 79.829 79.859 79.851 79.871 79.901 79.964 79.981 80.034 80.041 80.061 80.109 80.114 80.164 80.196 80.241 80.284 80.296 80.336 80.349 80.371 80.409 80.451 80.491 80.481 80.501 80.541 80.589 80.626 80.809 81.356 82.289 82.639 82.626 82.746 82.889 82.994 82.939 82.941 82.951 82.956 82.951 82.929 82.979 82.999 82.974 82.971 82.981 82.996 83.011 83.021 83.014 83.031 83.039 83.054 83.036 83.079 83.054 83.044 83.079 83.071 83.084 83.104 83.099 83.101 83.086 83.106 83.114 83.171 83.144 83.656 84.714 85.866 86.526 86.501 86.699 87.019 87.206 87.249 87.279 87.409 87.566 87.741 87.834 87.871 87.964 88.004 88.114 88.144 88.256 88.749 88.989 88.584 88.461 88.511 88.606 88.689 88.819 88.921 88.969 89.054 89.119 89.191 89.251 89.316 89.394 89.469 89.561 89.636 89.689 89.746 89.806 89.844 89.901 89.956 89.991 90.019 90.076 90.061 90.096 90.114 90.099 90.091 90.104 90.106 90.116 90.119 90.129 90.139 90.146 90.144 90.116 90.081 90.046 90.046 90.009 89.986 89.964 89.941 89.909 89.874 89.861 89.864 89.841 89.834 89.841 89.814 89.784 89.794 89.801 89.771 89.761 89.774 89.796 89.786 89.734 89.706 89.691 89.686 89.701 89.714 89.731 89.716 89.704 89.714 89.729 89.766 89.791 89.776 89.809 89.839 89.821 89.821 89.841 89.851 89.856 89.916 89.926 89.926 89.919 89.906 89.891 89.909 89.916 89.886 89.831 89.811 89.796 89.764 89.739 89.719 89.729 89.709 89.701 89.694 89.656 89.624 89.611 89.554 89.514 89.504 89.496 89.476 89.456 89.451 89.416 89.396 89.374 89.376 89.401 89.371 89.399 89.399 89.359 89.374 89.366 89.384 89.406 89.396 89.406 89.391 89.384 89.389 89.374 89.346 89.341
68.906 68.994 69.104 69.184 69.249 69.336 69.386 69.454 69.516 69.594 69.659 69.706 69.779 69.821 69.799 69.766 69.761 69.764 69.834 69.899 69.906 69.931 70.019 70.124 71.911 72.701 71.761 70.871 70.311 70.394 70.454 70.489 70.551 70.586 70.666 70.711 70.764 71.461 71.849 71.864 71.316 70.941 70.949 71.039 70.869 70.719 71.001 71.266 73.076 74.141 71.706 71.806 71.849 71.886 72.444 72.124 72.094 72.824 73.711 72.511 72.389 72.381 72.489 72.479 72.481 72.409 72.436 72.614 72.899 72.896 72.794 72.686 72.711 72.579 72.791 71.841 74.536 77.659 78.451 79.244 77.931 76.386 74.759 71.759 71.731 71.669 71.589 71.534 71.496 72.171 74.701 71.319 71.261 71.181 71.181 71.196 71.129 71.214 71.299 71.344 71.489 71.451 71.471 71.474 71.474 71.556 72.581 72.781 72.886 74.141 74.521 71.926 71.966 72.154 72.309 72.424 72.461 76.986 78.974 79.529 78.494 73.859 72.596 72.616 72.771 72.551 73.069 73.641 73.451 73.489 73.761 74.009 75.656 76.581 79.431 80.021 77.939 73.689 73.851 80.126 81.206 80.974 80.751 80.526 74.824 74.824 77.669 82.621 82.749 82.821 82.709 81.864 75.519 75.071 75.101 75.101 75.146 75.301 75.524 75.604 75.661 75.731 75.799 75.924 76.024 76.154 76.259 76.354 76.434 76.544 76.661 76.689 76.776 76.901 77.004 77.134 77.436 77.684 78.014 83.591 84.699 84.546 83.146 78.971 78.664 79.404 79.616 81.321 80.246 80.124 80.044 79.986 79.959 79.839 79.741 79.731 79.716 79.716 79.731 79.731 79.769 79.789 79.814 79.841 79.839 79.876 79.916 79.949 80.004 80.031 80.054 80.091 80.104 80.149 80.176 80.196 80.249 80.259 80.291 80.331 80.346 80.389 80.424 80.429 80.479 80.506 80.544 80.551 80.589 80.729 81.154 82.109 82.534 82.526 82.634 82.836 82.951 82.926 82.936 82.909 82.934 82.924 82.934 82.944 82.961 82.969 82.966 82.991 82.986 83.001 83.009 82.994 83.024 83.046 83.036 83.011 83.036 83.024 83.036 83.031 83.036 83.041 83.066 83.076 83.076 83.101 83.106 83.074 83.096 83.099 83.374 84.426 85.521 86.436 86.469 86.566 86.879 87.111 87.146 87.231 87.474 87.661 87.806 87.894 87.914 87.886 87.949 87.926 87.906 87.924 88.114 88.799 88.929 88.461 88.426 88.521 88.646 88.761 88.864 88.966 89.029 89.021 89.079 89.166 89.229 89.289 89.361 89.449 89.534 89.619 89.664 89.696 89.766 89.806 89.831 89.899 89.966 89.991 89.996 90.034 90.044 90.041 90.036 90.054 90.041 90.059 90.049 90.074 90.079 90.071 90.104 90.071 90.059 90.024 89.989 89.961 89.956 89.931 89.901 89.859 89.826 89.826 89.821 89.811 89.801 89.791 89.744 89.756 89.739 89.721 89.716 89.724 89.731 89.734 89.761 89.714 89.664 89.661 89.649 89.666 89.701 89.691 89.689 89.704 89.714 89.719 89.729 89.726 89.741 89.749 89.794 89.774 89.746 89.774 89.786 89.831 89.851 89.861 89.874 89.864 89.854 89.849 89.841 89.834 89.839 89.799 89.774 89.751 89.711 89.691 89.659 89.634 89.634 89.639 89.646 89.606 89.594 89.556 89.516 89.474 89.444 89.416 89.379 89.344 89.326 89.311 89.326 89.311 89.281 89.319 89.336 89.351 89.339 89.339 89.306 89.324 89.341 89.341 89.341 89.344 89.346 89.329 89.334 89.326 89.279 89.286
68.944 69.034 69.116 69.186 69.274 69.339 69.419 69.471 69.554 69.624 69.676 69.614 69.599 69.594 69.649 69.684 69.724 69.556 69.656 69.844 69.829 69.906 69.976 70.194 70.686 72.266 72.061 72.709 70.424 70.384 70.416 70.444 70.556 70.604 70.686 70.824 71.666 71.546 71.314 71.411 70.841 70.739 70.719 70.786 70.811 70.779 70.971 71.241 71.809 75.094 71.744 71.774 72.034 71.924 72.064 72.174 72.061 72.084 73.506 72.669 72.476 72.386 72.464 72.494 72.444 72.401 72.449 72.574 72.886 73.054 72.936 72.699 72.741 72.521 72.269 71.994 72.829 76.544 76.806 76.186 72.824 71.826 71.616 71.656 71.631 71.614 71.711 71.549 73.524 71.674 74.326 72.866 71.276 71.141 71.194 71.216 71.116 71.241 71.376 71.409 71.434 71.471 71.561 71.631 72.041 74.884 77.259 78.534 78.391 77.574 76.751 72.084 71.971 72.604 73.216 72.471 72.591 76.116 78.759 79.564 78.689 75.516 72.606 72.569 72.529 72.531 72.941 74.399 75.521 78.101 78.371 78.684 79.539 79.779 79.974 80.096 78.756 73.726 73.751 77.594 79.121 79.551 78.211 75.531 74.851 74.709 75.984 82.424 82.179 81.966 81.736 81.499 76.961 75.099 75.116 75.136 75.131 75.224 75.396 75.474 75.591 75.714 75.816 75.914 76.004 76.104 76.216 76.319 76.474 76.596 76.724 76.794 76.739 76.804 76.946 77.056 77.349 78.399 77.886 82.594 84.464 84.764 83.654 79.466 78.099 78.569 79.199 79.859 80.134 80.106 80.009 79.934 79.919 79.934 79.729 79.694 79.679 79.659 79.684 79.691 79.709 79.749 79.759 79.814 79.814 79.864 79.886 79.891 79.941 79.989 80.019 80.049 80.084 80.104 80.141 80.179 80.206 80.236 80.276 80.296 80.331 80.356 80.391 80.409 80.446 80.486 80.491 80.516 80.569 80.649 80.966 81.851 82.411 82.436 82.504 82.696 82.941 82.896 82.906 82.909 82.919 82.919 82.916 82.934 82.931 82.934 82.936 82.954 82.974 82.971 82.981 83.004 82.981 82.996 82.999 83.011 83.014 83.016 82.999 83.024 83.036 83.061 83.044 83.036 83.059 83.066 83.071 83.076 83.094 83.094 83.169 84.054 85.116 86.191 86.444 86.449 86.756 86.996 87.091 87.294 87.546 87.776 87.939 87.829 87.514 87.799 87.711 87.449 87.104 87.701 87.924 88.301 88.889 88.521 88.376 88.429 88.556 88.681 88.711 88.854 88.946 88.939 88.981 89.049 89.121 89.194 89.266 89.329 89.401 89.469 89.556 89.594 89.671 89.701 89.761 89.844 89.884 89.919 89.951 89.979 89.981 89.954 89.966 89.974 89.989 90.021 90.026 90.019 90.011 90.039 90.041 90.046 90.024 89.979 89.949 89.916 89.901 89.866 89.844 89.821 89.806 89.781 89.789 89.754 89.754 89.746 89.731 89.714 89.709 89.706 89.719 89.709 89.721 89.704 89.719 89.674 89.629 89.626 89.649 89.661 89.666 89.634 89.636 89.651 89.714 89.694 89.709 89.689 89.704 89.739 89.749 89.754 89.739 89.736 89.764 89.779 89.774 89.786 89.814 89.831 89.811 89.786 89.786 89.766 89.771 89.769 89.714 89.686 89.666 89.631 89.601 89.566 89.574 89.576 89.584 89.571 89.549 89.509 89.456 89.399 89.346 89.304 89.294 89.276 89.241 89.239 89.244 89.251 89.261 89.261 89.269 89.289 89.301 89.269 89.241 89.279 89.276 89.284 89.291 89.269 89.289 89.264 89.256 89.259 89.249 89.229
69.001 69.066 69.149 69.231 69.314 69.391 69.426 69.571 69.476 69.456 69.476 69.461 69.506 69.534 69.581 69.629 69.671 69.516 69.676 69.771 69.841 69.886 69.941 70.129 70.524 72.424 72.781 72.821 71.046 70.306 70.389 71.326 75.066 71.584 71.174 70.894 71.094 70.904 70.694 70.719 70.749 70.811 70.769 70.816 70.831 70.821 70.891 71.211 71.224 73.829 73.276 72.349 71.986 72.294 71.996 72.009 72.771 73.466 74.341 73.146 72.561 72.414 72.524 72.554 72.529 72.484 72.459 72.554 72.824 72.814 72.891 72.714 72.649 72.579 72.356 72.116 71.801 71.649 71.576 71.579 71.591 71.559 71.619 71.646 71.686 71.734 71.881 72.984 71.629 71.574 71.396 71.406 71.264 71.114 71.154 71.149 71.139 71.231 71.634 71.834 71.414 71.469 71.724 72.024 72.151 76.689 77.566 78.394 78.559 77.736 76.896 72.194 72.369 72.199 72.686 72.441 72.471 74.331 78.539 79.546 78.921 75.709 72.886 72.729 72.549 72.524 72.594 74.781 77.244 79.844 79.991 80.034 79.899 79.746 79.554 79.214 78.601 73.846 73.791 74.704 74.354 75.091 74.466 74.481 74.506 74.446 74.524 80.751 81.044 80.826 80.541 78.584 76.649 75.126 75.074 75.119 75.141 75.209 75.326 75.426 75.539 75.641 75.761 75.856 76.026 76.169 76.314 76.461 76.589 76.681 76.806 77.576 76.981 76.844 76.876 76.956 77.124 77.551 77.624 81.616 84.286 84.859 83.926 81.324 78.276 78.306 79.121 79.989 80.186 80.184 80.126 79.929 79.856 79.836 79.741 79.619 79.629 79.626 79.626 79.644 79.676 79.704 79.739 79.776 79.811 79.831 79.854 79.876 79.921 79.956 80.011 80.016 80.069 80.091 80.109 80.141 80.191 80.204 80.236 80.281 80.321 80.339 80.366 80.411 80.421 80.459 80.456 80.499 80.539 80.584 80.814 81.609 82.301 82.331 82.384 82.591 82.874 82.899 82.889 82.881 82.881 82.876 82.901 82.914 82.899 82.896 82.921 82.944 82.944 82.956 82.939 82.961 82.956 82.981 82.969 82.974 82.996 82.996 83.006 83.029 83.024 83.041 83.051 83.034 83.044 83.041 83.059 83.044 83.041 83.116 83.039 83.659 84.724 85.841 86.374 86.361 86.581 86.876 87.124 87.346 87.599 87.791 87.934 87.096 86.766 86.741 86.836 86.779 86.754 87.599 87.894 87.999 88.689 88.509 88.289 88.344 88.449 88.501 88.566 88.694 88.846 88.846 88.894 88.954 88.994 89.061 89.124 89.199 89.304 89.369 89.441 89.534 89.574 89.639 89.684 89.741 89.791 89.834 89.886 89.899 89.891 89.891 89.889 89.916 89.929 89.964 89.946 89.959 89.976 89.989 89.994 89.991 89.961 89.934 89.909 89.886 89.854 89.804 89.799 89.796 89.764 89.736 89.724 89.724 89.719 89.714 89.719 89.726 89.691 89.649 89.671 89.709 89.691 89.671 89.674 89.639 89.606 89.619 89.611 89.619 89.629 89.626 89.619 89.641 89.644 89.656 89.636 89.679 89.681 89.699 89.704 89.706 89.704 89.711 89.706 89.726 89.729 89.741 89.751 89.771 89.764 89.736 89.709 89.694 89.726 89.711 89.664 89.584 89.589 89.589 89.549 89.516 89.519 89.521 89.506 89.486 89.459 89.409 89.366 89.311 89.279 89.224 89.221 89.211 89.169 89.191 89.186 89.199 89.219 89.206 89.224 89.261 89.251 89.241 89.204 89.229 89.221 89.224 89.204 89.209 89.199 89.209 89.204 89.191 89.171 89.159
69.021 69.091 69.249 69.321 69.391 69.316 69.334 69.351 69.346 69.359 69.386 69.404 69.446 69.476 69.526 69.576 69.639 69.729 69.766 69.764 69.824 69.866 69.931 70.009 70.239 72.024 72.821 71.431 70.776 70.436 70.644 73.049 77.951 74.746 71.116 70.704 70.701 70.691 70.774 70.756 70.741 70.764 70.769 70.799 70.811 70.809 70.799 71.096 71.204 72.781 74.031 72.709 71.876 72.056 71.869 73.634 74.796 75.119 75.026 73.746 72.636 72.474 72.471 72.579 72.519 72.504 72.486 72.559 72.709 72.846 72.811 72.706 72.644 72.639 72.444 72.174 71.934 71.744 71.609 71.794 73.521 73.681 73.779 73.776 71.564 72.234 71.551 71.764 71.364 71.324 71.316 71.306 71.244 71.106 71.161 71.196 71.126 71.199 71.356 72.039 71.401 71.449 71.649 71.734 71.606 76.009 77.421 78.209 78.646 77.901 77.061 72.941 72.891 72.174 72.364 72.474 72.486 73.626 78.304 79.071 76.334 74.196 72.731 72.546 72.499 72.496 72.504 73.001 76.296 79.941 79.654 77.486 77.631 76.961 75.011 74.246 73.776 73.756 73.779 73.911 74.291 74.391 74.429 74.469 74.469 74.454 74.581 77.851 76.034 77.831 76.949 76.876 76.154 75.151 75.039 75.131 75.131 75.201 75.304 75.451 75.534 75.721 75.896 75.999 76.076 76.194 76.549 76.696 76.796 76.824 76.914 77.496 77.301 76.991 76.909 77.051 77.169 77.381 77.549 79.426 83.936 84.041 81.646 79.911 78.441 78.316 79.086 79.774 80.626 80.079 79.969 79.876 79.771 79.776 79.711 79.569 79.586 79.581 79.604 79.624 79.661 79.681 79.726 79.764 79.804 79.809 79.846 79.849 79.876 79.916 79.959 79.994 80.026 80.056 80.091 80.109 80.159 80.206 80.224 80.236 80.264 80.304 80.334 80.371 80.414 80.411 80.439 80.471 80.521 80.584 80.699 81.311 82.189 82.251 82.281 82.516 82.821 82.864 82.844 82.856 82.841 82.831 82.879 82.889 82.874 82.894 82.916 82.914 82.906 82.914 82.914 82.944 82.946 82.961 82.949 82.924 82.981 82.981 83.001 83.001 82.996 83.004 83.001 83.019 83.029 83.034 83.021 83.046 83.059 83.066 83.071 83.361 84.399 85.484 86.321 86.241 86.451 86.781 87.086 87.319 87.551 87.779 87.909 87.121 86.781 86.719 86.684 86.696 86.836 87.824 87.901 87.909 88.274 88.354 88.139 88.231 88.274 88.326 88.424 88.536 88.696 88.744 88.759 88.834 88.899 88.949 88.999 89.094 89.189 89.289 89.334 89.434 89.506 89.569 89.614 89.666 89.746 89.774 89.826 89.806 89.814 89.829 89.849 89.889 89.904 89.916 89.929 89.904 89.919 89.916 89.929 89.936 89.931 89.896 89.854 89.839 89.809 89.781 89.746 89.724 89.709 89.701 89.681 89.664 89.691 89.689 89.701 89.726 89.671 89.649 89.649 89.639 89.649 89.646 89.644 89.621 89.569 89.566 89.569 89.571 89.604 89.596 89.579 89.574 89.614 89.616 89.614 89.644 89.636 89.641 89.659 89.664 89.654 89.631 89.644 89.659 89.666 89.696 89.701 89.704 89.699 89.684 89.651 89.636 89.644 89.629 89.619 89.581 89.549 89.546 89.516 89.471 89.446 89.441 89.426 89.414 89.379 89.329 89.276 89.221 89.171 89.149 89.139 89.151 89.116 89.144 89.159 89.156 89.169 89.154 89.149 89.194 89.224 89.239 89.199 89.179 89.164 89.156 89.159 89.131 89.156 89.159 89.131 89.121 89.099 89.126
69.044 69.096 69.119 69.114 69.151 69.169 69.189 69.269 69.304 69.291 69.324 69.374 69.416 69.481 69.534 69.554 69.589 69.674 69.709 69.739 69.776 69.869 69.886 70.004 70.271 71.441 70.486 70.456 70.594 70.746 70.746 71.701 72.756 71.531 70.854 70.714 70.704 70.719 70.731 70.746 70.734 70.746 70.771 70.786 70.779 70.781 70.786 70.864 71.214 72.216 74.169 72.001 71.674 71.891 73.384 74.191 74.636 73.374 72.966 73.896 72.591 72.479 72.474 72.541 72.559 72.474 72.484 72.534 72.701 72.856 72.776 72.776 72.676 72.664 72.546 72.324 71.999 71.776 74.894 76.331 78.014 78.519 77.799 76.976 73.886 71.486 71.426 71.399 71.439 71.334 71.296 71.379 71.286 71.149 71.166 71.204 71.139 71.159 71.299 71.504 71.389 71.394 71.454 71.521 71.621 74.711 77.231 78.069 78.644 78.054 77.211 74.171 72.434 72.139 72.329 72.424 72.451 72.616 72.804 72.541 72.556 72.571 72.751 72.966 72.611 72.474 72.516 73.086 75.586 79.754 79.766 76.109 74.291 74.609 74.386 73.686 73.749 73.719 73.799 73.909 74.154 74.269 74.349 74.406 74.441 74.464 75.304 75.389 75.004 75.046 75.549 75.689 76.339 75.129 75.024 75.134 75.134 75.126 75.276 75.729 75.774 75.796 75.994 75.996 75.956 76.014 76.614 76.764 77.004 76.981 77.009 77.289 78.281 77.899 77.034 77.126 77.176 77.269 77.494 77.774 78.451 78.786 78.239 79.026 78.319 77.871 78.864 79.544 80.136 80.076 79.914 79.846 79.734 79.756 79.796 79.544 79.536 79.551 79.579 79.586 79.621 79.669 79.694 79.724 79.741 79.769 79.794 79.841 79.866 79.881 79.914 79.964 79.994 80.039 80.069 80.101 80.106 80.159 80.204 80.206 80.246 80.291 80.324 80.351 80.369 80.396 80.434 80.439 80.504 80.539 80.606 81.026 81.996 82.201 82.224 82.406 82.781 82.891 82.849 82.844 82.856 82.856 82.851 82.869 82.881 82.869 82.879 82.896 82.874 82.874 82.901 82.929 82.941 82.959 82.929 82.949 82.951 82.929 82.951 82.969 82.979 82.996 82.991 82.979 82.989 83.001 83.001 83.011 83.051 83.064 83.056 83.179 83.991 84.999 86.164 86.259 86.324 86.649 86.979 87.224 87.481 87.776 87.914 87.811 87.779 87.586 86.964 86.691 86.789 87.794 87.916 87.879 87.966 88.051 87.991 88.054 88.104 88.209 88.354 88.451 88.566 88.619 88.626 88.716 88.771 88.819 88.906 89.016 89.124 89.186 89.281 89.359 89.399 89.476 89.534 89.564 89.664 89.699 89.741 89.739 89.761 89.761 89.769 89.791 89.811 89.846 89.834 89.866 89.841 89.851 89.884 89.871 89.861 89.846 89.804 89.759 89.759 89.731 89.714 89.704 89.684 89.661 89.641 89.631 89.656 89.669 89.681 89.674 89.674 89.664 89.646 89.626 89.644 89.624 89.599 89.591 89.529 89.519 89.519 89.521 89.534 89.536 89.526 89.549 89.579 89.594 89.586 89.579 89.579 89.596 89.611 89.616 89.611 89.576 89.599 89.586 89.609 89.621 89.619 89.616 89.644 89.636 89.609 89.586 89.586 89.581 89.539 89.544 89.521 89.494 89.461 89.381 89.374 89.346 89.331 89.304 89.274 89.266 89.204 89.166 89.109 89.094 89.079 89.071 89.061 89.096 89.134 89.114 89.101 89.096 89.129 89.151 89.199 89.186 89.159 89.154 89.151 89.114 89.089 89.071 89.116 89.106 89.089 89.074 89.116 89.179
69.011 69.009 69.011 69.069 69.091 69.084 69.106 69.174 69.236 69.281 69.311 69.364 69.414 69.471 69.519 69.536 69.536 69.609 69.666 69.739 69.801 69.846 69.889 69.979 70.734 73.679 71.304 70.911 70.554 70.554 70.554 70.619 70.669 70.689 70.696 70.701 70.731 70.694 70.714 70.724 70.739 70.756 70.749 70.774 70.749 70.764 70.776 70.811 71.191 71.286 74.216 71.866 71.696 72.041 72.961 72.709 71.969 72.001 72.111 74.311 72.611 72.561 72.519 72.599 72.596 72.574 72.531 72.524 72.666 72.739 72.804 72.796 72.709 72.704 73.514 73.131 72.619 71.724 74.969 77.019 77.834 78.514 77.961 77.126 74.301 71.499 71.551 71.881 72.189 71.374 71.304 71.824 71.499 71.131 71.174 71.214 71.144 71.134 71.276 71.316 71.351 71.396 71.434 71.484 71.579 73.966 77.086 77.894 78.651 78.221 77.409 74.979 72.476 72.079 72.296 72.489 72.591 73.549 72.976 72.601 73.436 74.219 73.559 73.321 72.519 72.459 72.616 72.784 73.874 75.894 74.274 74.271 73.609 73.744 74.281 73.659 73.696 73.786 73.806 73.926 74.044 74.181 74.271 74.401 74.401 74.454 75.159 74.971 74.824 74.919 75.621 75.316 75.086 75.046 75.051 75.131 75.146 75.131 75.494 75.839 75.684 75.759 75.794 75.774 75.809 75.811 76.776 78.146 78.361 78.596 80.049 81.571 82.229 82.129 77.499 77.099 77.174 77.299 77.424 77.561 77.834 77.641 78.871 79.511 78.259 77.806 78.661 79.644 80.069 79.984 79.871 79.759 79.686 79.666 79.656 79.511 79.484 79.509 79.559 79.569 79.596 79.624 79.656 79.694 79.714 79.739 79.779 79.819 79.846 79.854 79.901 79.931 79.976 79.981 80.049 80.079 80.084 80.136 80.161 80.194 80.211 80.251 80.274 80.331 80.354 80.369 80.396 80.444 80.451 80.509 80.549 80.809 81.719 82.134 82.114 82.264 82.659 82.819 82.824 82.829 82.824 82.846 82.864 82.864 82.881 82.871 82.851 82.854 82.856 82.856 82.876 82.914 82.904 82.926 82.929 82.946 82.951 82.951 82.926 82.959 82.951 82.961 82.979 82.956 82.984 82.986 82.984 83.016 83.039 83.006 83.029 83.084 83.724 84.761 85.866 86.349 86.206 86.499 86.864 87.136 87.439 87.761 87.859 87.919 87.886 87.954 87.394 86.716 86.721 87.551 87.904 87.834 87.791 87.844 87.861 87.924 87.979 88.091 88.241 88.384 88.459 88.509 88.536 88.626 88.681 88.736 88.816 88.921 89.034 89.101 89.186 89.259 89.319 89.389 89.441 89.494 89.549 89.591 89.626 89.661 89.664 89.694 89.709 89.726 89.749 89.769 89.776 89.796 89.764 89.769 89.814 89.811 89.809 89.811 89.794 89.734 89.699 89.686 89.666 89.681 89.656 89.641 89.649 89.649 89.644 89.669 89.654 89.651 89.676 89.626 89.616 89.601 89.601 89.576 89.564 89.566 89.534 89.496 89.486 89.491 89.494 89.504 89.501 89.519 89.521 89.526 89.531 89.531 89.524 89.529 89.544 89.554 89.534 89.524 89.531 89.514 89.514 89.559 89.569 89.569 89.579 89.571 89.534 89.516 89.514 89.479 89.491 89.461 89.494 89.446 89.369 89.324 89.289 89.266 89.256 89.236 89.191 89.189 89.154 89.101 89.079 89.041 89.006 89.006 89.014 89.026 89.079 89.091 89.074 89.051 89.079 89.126 89.161 89.126 89.146 89.114 89.101 89.074 89.046 89.024 89.079 89.076 89.071 89.104 89.164 89.371
68.871 68.916 68.961 69.001 69.024 69.064 69.101 69.169 69.206 69.236 69.314 69.356 69.404 69.451 69.496 69.524 69.529 69.581 69.654 69.724 69.774 69.809 69.824 69.981 70.399 73.186 71.261 70.709 70.541 70.601 70.684 70.666 70.701 70.696 70.689 70.714 70.714 70.684 70.731 70.729 70.736 70.744 70.751 70.764 70.736 70.746 70.769 70.754 70.956 71.156 72.299 73.284 71.546 71.661 71.766 72.341 72.001 71.979 72.021 74.119 73.434 72.614 72.514 72.591 72.611 72.574 72.599 72.516 72.654 72.824 72.846 72.741 72.711 72.606 73.311 75.436 74.729 72.841 73.101 76.884 77.689 78.471 78.101 77.291 74.949 71.519 71.914 72.186 72.049 71.376 71.316 71.324 71.276 71.139 71.106 71.159 71.106 71.094 71.231 71.291 71.306 71.379 71.431 71.486 71.544 72.381 76.939 77.759 78.534 78.369 77.551 76.351 72.351 72.709 72.294 72.491 72.746 73.311 74.139 77.159 78.856 78.989 75.446 72.616 72.501 72.386 72.409 72.454 73.066 73.371 73.521 73.816 73.426 73.444 73.471 73.586 73.661 73.689 73.769 73.876 73.964 74.066 74.176 74.236 74.324 74.411 74.489 74.549 74.654 74.756 74.869 74.901 74.926 74.981 75.056 75.134 75.149 75.134 75.291 75.524 75.614 75.636 75.626 75.694 75.664 75.679 77.044 82.416 83.014 83.231 83.419 83.636 83.796 83.149 78.921 77.099 77.181 77.344 77.496 77.561 80.584 82.789 84.774 83.746 80.111 77.726 78.379 80.491 80.459 79.984 79.999 79.819 79.796 79.826 79.614 79.501 79.439 79.491 79.526 79.554 79.579 79.606 79.631 79.661 79.676 79.696 79.739 79.779 79.821 79.859 79.879 79.899 79.931 79.974 80.016 80.039 80.064 80.116 80.149 80.164 80.199 80.206 80.241 80.284 80.311 80.336 80.374 80.416 80.414 80.464 80.509 80.674 81.476 82.024 82.031 82.096 82.564 82.766 82.794 82.811 82.811 82.809 82.839 82.804 82.836 82.864 82.854 82.849 82.874 82.866 82.861 82.884 82.896 82.909 82.901 82.901 82.911 82.931 82.951 82.934 82.926 82.944 82.946 82.931 82.946 82.971 82.966 82.994 82.986 82.999 83.054 83.106 83.676 84.571 85.644 86.136 86.086 86.334 86.684 86.946 87.254 87.689 87.859 87.951 87.756 87.824 87.741 86.921 87.026 87.746 87.921 87.754 87.721 87.789 87.801 87.841 87.884 87.974 88.104 88.279 88.396 88.386 88.461 88.531 88.579 88.661 88.744 88.816 88.916 88.989 89.069 89.161 89.211 89.304 89.356 89.409 89.454 89.471 89.526 89.579 89.594 89.634 89.651 89.656 89.679 89.721 89.719 89.716 89.716 89.711 89.736 89.761 89.789 89.799 89.766 89.741 89.664 89.644 89.641 89.656 89.624 89.614 89.619 89.626 89.619 89.619 89.624 89.626 89.619 89.586 89.594 89.564 89.574 89.576 89.551 89.549 89.551 89.504 89.469 89.466 89.439 89.449 89.454 89.454 89.451 89.459 89.469 89.464 89.484 89.481 89.481 89.496 89.496 89.449 89.464 89.451 89.479 89.491 89.494 89.509 89.491 89.481 89.466 89.421 89.434 89.416 89.436 89.466 89.394 89.361 89.271 89.244 89.226 89.201 89.166 89.146 89.136 89.099 89.091 89.049 88.994 88.961 88.961 88.971 88.971 88.991 89.026 89.069 89.051 89.034 89.034 89.071 89.094 89.091 89.076 89.029 89.029 88.999 88.999 89.006 89.029 89.039 89.096 89.491 90.254 90.521
68.779 68.869 68.914 68.956 69.011 69.049 69.101 69.144 69.159 69.236 69.294 69.331 69.419 69.411 69.464 69.491 69.534 69.581 69.681 69.729 69.754 69.801 69.836 69.941 69.996 71.411 72.021 70.491 70.626 70.691 70.706 70.671 70.691 70.684 70.701 70.704 70.711 70.664 70.704 70.731 70.731 70.739 70.754 70.751 70.774 70.761 70.744 70.776 70.884 71.216 71.306 72.066 71.494 71.651 71.749 72.241 72.521 72.761 72.186 74.556 73.026 72.666 72.521 72.579 72.584 72.634 72.606 72.621 72.664 72.771 72.789 72.769 72.689 72.971 72.964 74.434 72.769 71.806 72.631 76.726 77.524 78.329 78.264 77.429 76.224 71.481 71.701 71.724 71.651 71.344 71.424 72.641 72.534 71.624 71.091 71.149 71.156 71.119 71.179 71.289 71.301 71.361 71.429 71.474 71.519 71.999 76.776 77.589 78.411 78.519 77.699 76.679 73.041 72.109 72.301 72.766 72.809 72.689 74.691 78.836 79.796 79.221 76.534 72.689 72.431 72.289 72.319 72.384 73.261 72.959 73.231 73.234 73.264 73.284 73.316 73.401 73.494 73.551 73.654 73.764 73.811 73.944 74.034 74.136 74.171 74.244 74.314 74.454 74.516 74.631 74.736 74.871 74.954 74.986 75.066 75.116 75.594 75.129 75.234 75.714 75.501 75.919 76.444 78.396 75.906 75.606 77.094 83.921 84.124 84.264 84.371 84.359 84.201 83.341 79.404 77.059 77.194 77.674 77.791 77.571 80.309 84.159 84.899 83.971 81.154 77.681 78.384 80.021 80.406 80.229 79.896 79.721 79.706 79.709 79.564 79.489 79.414 79.479 79.504 79.521 79.534 79.584 79.589 79.604 79.666 79.686 79.724 79.749 79.786 79.824 79.849 79.854 79.909 79.959 79.996 80.009 80.051 80.091 80.094 80.126 80.156 80.174 80.221 80.256 80.281 80.321 80.346 80.381 80.411 80.419 80.456 80.574 81.281 81.906 81.924 81.974 82.396 82.726 82.846 82.814 82.794 82.784 82.804 82.794 82.826 82.831 82.844 82.846 82.856 82.864 82.876 82.859 82.849 82.889 82.864 82.881 82.891 82.879 82.916 82.924 82.916 82.929 82.914 82.934 82.949 82.956 82.939 83.029 83.009 83.094 83.214 83.466 84.096 84.794 85.669 86.091 85.981 86.131 86.416 86.661 86.891 87.344 87.356 87.426 87.126 87.326 87.676 87.794 87.791 87.696 87.519 87.466 87.429 87.626 87.724 87.776 87.816 87.859 87.999 88.176 88.291 88.269 88.336 88.424 88.491 88.566 88.649 88.731 88.816 88.881 88.976 89.079 89.139 89.204 89.269 89.314 89.354 89.416 89.441 89.476 89.529 89.556 89.564 89.589 89.619 89.616 89.621 89.664 89.669 89.656 89.674 89.691 89.706 89.716 89.721 89.706 89.656 89.621 89.616 89.616 89.596 89.581 89.569 89.581 89.586 89.566 89.586 89.599 89.604 89.594 89.574 89.564 89.554 89.551 89.539 89.521 89.506 89.456 89.414 89.411 89.381 89.394 89.391 89.386 89.411 89.399 89.429 89.414 89.426 89.434 89.419 89.441 89.431 89.436 89.409 89.416 89.406 89.409 89.414 89.426 89.394 89.396 89.371 89.344 89.356 89.336 89.356 89.351 89.316 89.264 89.214 89.161 89.149 89.149 89.119 89.091 89.071 89.054 89.034 88.996 88.934 88.924 88.924 88.929 88.939 88.966 88.974 89.029 89.016 88.991 89.009 89.011 89.049 89.029 88.976 88.971 88.994 88.979 88.981 89.026 89.069 89.734 90.239 90.314 89.711 88.899
68.794 68.839 68.896 68.944 69.001 69.024 69.059 69.131 69.161 69.191 69.226 69.281 69.349 69.394 69.441 69.466 69.536 69.584 69.669 69.696 69.741 69.794 69.864 69.901 69.954 70.981 72.996 70.299 70.676 70.679 70.691 70.689 70.691 70.699 70.686 70.709 70.711 70.709 70.709 70.706 70.721 70.731 70.776 70.761 70.769 70.746 70.744 70.764 70.776 71.109 71.249 72.244 71.474 71.631 71.781 73.336 74.896 74.041 72.134 74.476 73.541 72.669 72.551 72.566 72.609 72.606 72.651 72.556 72.619 72.771 72.841 72.754 72.646 72.724 73.009 73.416 72.831 71.986 72.411 76.566 77.364 78.184 78.429 77.601 76.796 73.671 71.429 71.719 72.199 71.366 71.371 71.451 72.149 71.401 71.059 71.151 71.144 71.081 71.171 71.249 71.264 71.334 71.399 71.454 71.514 71.616 76.269 77.439 78.256 78.629 77.859 77.059 74.164 72.226 72.234 72.446 72.624 72.876 73.904 78.641 79.709 79.431 77.791 73.006 72.629 72.316 72.359 72.446 72.641 72.686 73.169 73.346 73.074 73.121 73.266 73.329 73.449 73.551 73.659 73.764 73.811 73.954 74.041 74.106 74.171 74.251 74.321 74.449 74.531 74.621 74.729 74.784 74.849 75.024 75.061 75.059 75.626 75.446 75.156 75.651 78.331 80.239 81.301 81.541 77.781 75.551 75.666 83.871 84.119 83.891 83.699 83.491 83.289 83.034 81.414 77.099 77.224 77.449 77.891 77.594 79.671 83.911 84.881 84.181 82.319 77.974 77.966 78.911 79.504 79.879 79.804 79.676 79.664 79.629 79.546 79.489 79.381 79.444 79.486 79.504 79.494 79.519 79.566 79.606 79.644 79.656 79.709 79.731 79.754 79.799 79.821 79.829 79.834 79.881 79.946 80.014 80.024 80.051 80.101 80.111 80.126 80.144 80.166 80.219 80.274 80.271 80.291 80.344 80.369 80.416 80.439 80.481 81.064 81.794 81.824 81.836 82.206 82.716 82.964 82.776 82.764 82.774 82.789 82.784 82.819 82.801 82.809 82.816 82.831 82.846 82.844 82.841 82.839 82.896 82.856 82.864 82.866 82.859 82.884 82.894 82.896 82.916 82.946 82.916 82.939 83.016 83.096 83.234 83.484 83.706 83.946 84.334 84.844 85.436 85.984 85.946 85.894 85.911 86.044 86.239 86.439 86.656 86.686 86.751 86.676 86.796 86.991 87.359 87.181 86.979 86.849 86.841 86.941 87.344 87.594 87.686 87.744 87.819 87.909 88.041 88.141 88.136 88.236 88.349 88.416 88.479 88.564 88.616 88.694 88.809 88.901 88.964 89.026 89.101 89.174 89.221 89.281 89.286 89.334 89.389 89.434 89.474 89.494 89.524 89.526 89.519 89.529 89.569 89.569 89.511 89.484 89.509 89.491 89.524 89.551 89.596 89.621 89.596 89.584 89.574 89.564 89.546 89.549 89.521 89.516 89.509 89.534 89.559 89.564 89.539 89.561 89.519 89.521 89.501 89.496 89.471 89.471 89.446 89.379 89.361 89.349 89.351 89.359 89.341 89.341 89.351 89.346 89.349 89.361 89.359 89.361 89.371 89.386 89.346 89.334 89.331 89.321 89.336 89.339 89.331 89.326 89.329 89.306 89.314 89.284 89.266 89.276 89.254 89.224 89.174 89.161 89.131 89.074 89.056 89.054 89.019 89.004 88.974 88.954 88.919 88.896 88.904 88.906 88.894 88.919 88.941 88.931 88.984 88.969 88.979 88.984 88.991 88.969 88.931 88.961 88.949 88.984 89.016 89.131 89.774 90.561 90.086 89.406 88.791 88.641 88.579
68.799 68.834 68.866 68.934 68.979 68.986 69.026 69.046 69.056 69.049 69.144 69.264 69.321 69.371 69.409 69.446 69.536 69.594 69.626 69.691 69.726 69.774 69.841 69.871 69.901 69.976 72.599 70.746 70.649 70.679 70.694 70.696 70.681 70.681 70.686 70.706 70.721 70.721 70.739 70.734 70.751 70.754 70.766 70.756 70.739 70.739 70.749 70.756 70.746 70.929 71.191 71.751 71.784 71.626 71.811 73.504 74.816 74.674 72.351 74.281 74.114 72.676 72.649 72.589 72.656 72.616 72.611 72.554 72.566 72.744 72.874 72.736 72.739 73.016 73.184 73.914 73.094 72.026 71.974 76.194 77.229 78.031 78.534 77.741 76.951 75.004 72.451 71.406 71.536 71.361 71.309 71.254 71.239 71.196 71.084 71.119 71.134 71.079 71.126 71.226 71.259 71.329 71.364 71.416 71.494 71.596 75.624 77.301 78.096 78.669 78.026 77.209 74.186 72.184 72.219 72.621 72.716 72.901 73.371 78.401 79.541 79.659 78.381 73.471 72.536 72.401 72.381 72.451 72.559 72.664 73.106 73.206 72.996 73.076 73.256 73.334 73.424 73.481 73.569 73.676 73.774 73.894 73.999 74.044 74.139 74.214 74.704 75.801 76.081 74.604 74.714 74.834 75.096 75.669 75.226 75.094 75.059 75.196 75.136 75.816 77.919 81.721 81.946 81.851 79.066 76.194 75.701 81.266 82.954 81.626 80.216 80.746 78.326 77.096 77.066 77.621 77.289 77.349 77.511 77.576 78.971 83.431 84.639 84.359 83.066 78.279 77.786 78.786 79.354 80.054 79.801 79.664 79.629 79.489 79.526 79.466 79.394 79.409 79.441 79.494 79.484 79.514 79.569 79.591 79.619 79.634 79.666 79.701 79.729 79.771 79.806 79.821 79.824 79.869 79.931 79.954 79.989 80.024 80.049 80.091 80.119 80.149 80.174 80.194 80.209 80.256 80.286 80.329 80.344 80.396 80.419 80.429 80.786 81.621 81.751 81.741 82.064 82.659 83.029 82.776 82.739 82.754 82.771 82.766 82.791 82.809 82.789 82.794 82.816 82.796 82.811 82.819 82.824 82.841 82.869 82.854 82.861 82.916 82.891 82.879 82.909 82.901 82.889 82.894 82.924 83.111 83.576 83.944 84.311 84.579 84.806 85.131 85.409 85.694 85.826 85.839 85.839 85.859 85.964 86.101 86.231 86.391 86.549 86.614 86.644 86.654 86.671 86.754 86.739 86.721 86.741 86.766 86.856 87.271 87.529 87.589 87.664 87.746 87.839 87.924 87.986 88.011 88.139 88.241 88.344 88.394 88.456 88.519 88.589 88.681 88.761 88.844 88.934 88.966 89.081 89.146 89.176 89.211 89.254 89.296 89.309 89.389 89.424 89.444 89.429 89.429 89.386 89.361 89.311 89.256 89.166 89.166 89.181 89.261 89.384 89.494 89.559 89.571 89.531 89.526 89.524 89.506 89.484 89.494 89.474 89.476 89.501 89.519 89.549 89.534 89.509 89.496 89.456 89.424 89.429 89.421 89.426 89.419 89.349 89.324 89.314 89.309 89.311 89.299 89.301 89.306 89.291 89.301 89.309 89.319 89.326 89.324 89.321 89.286 89.254 89.239 89.224 89.264 89.274 89.261 89.259 89.251 89.266 89.246 89.224 89.194 89.186 89.174 89.161 89.084 89.069 89.051 88.991 88.981 88.961 88.924 88.924 88.899 88.899 88.871 88.866 88.879 88.879 88.886 88.904 88.906 88.929 88.919 88.934 88.944 88.914 88.909 88.906 88.934 88.959 89.046 89.289 89.871 90.034 90.181 89.074 88.669 88.599 88.574 88.586 88.574
68.761 68.811 68.849 68.896 68.921 68.961 69.004 68.984 69.001 69.024 69.126 69.229 69.301 69.354 69.364 69.454 69.534 69.576 69.601 69.651 69.711 69.779 69.794 69.841 69.911 69.986 71.531 71.814 70.446 70.686 70.681 70.686 70.674 70.684 70.676 70.706 70.709 70.744 70.741 70.741 70.769 70.761 70.766 70.741 70.754 70.731 70.721 70.734 70.749 70.794 71.211 71.436 71.881 71.606 71.796 72.379 74.659 74.849 73.226 72.476 73.974 72.709 72.674 72.581 72.609 72.556 72.631 73.024 72.606 72.669 72.904 72.744 72.924 73.304 73.631 73.451 73.194 72.056 71.606 75.641 77.059 77.886 78.504 77.904 77.064 75.606 73.191 71.366 71.374 71.374 71.331 71.276 71.234 71.196 71.116 71.124 71.139 71.094 71.106 71.216 71.216 71.291 71.351 71.439 71.489 71.559 74.989 77.149 77.934 78.649 78.184 77.364 74.796 72.731 72.226 72.426 72.589 72.691 72.804 77.404 79.321 79.669 76.424 72.711 72.584 72.476 72.436 72.519 72.596 72.676 72.789 72.911 72.991 73.059 73.229 73.314 73.426 73.539 73.654 73.801 73.949 74.049 74.116 74.164 74.209 74.306 74.504 75.016 75.126 74.739 74.829 74.981 75.746 75.364 75.404 75.169 75.089 75.069 75.086 75.436 77.099 80.569 79.589 77.966 75.979 75.994 75.781 76.991 77.456 77.151 77.461 78.741 77.356 77.131 77.426 77.349 77.391 77.389 77.481 77.579 77.676 82.684 83.869 83.626 82.576 78.416 77.759 78.454 79.246 79.911 79.966 79.584 79.564 79.554 79.469 79.481 79.399 79.376 79.414 79.439 79.459 79.486 79.541 79.574 79.606 79.609 79.629 79.691 79.706 79.741 79.756 79.779 79.829 79.841 79.879 79.931 79.941 79.969 80.046 80.061 80.094 80.131 80.121 80.164 80.199 80.236 80.269 80.291 80.309 80.334 80.394 80.406 80.616 81.419 81.631 81.644 81.876 82.574 82.751 82.809 82.746 82.746 82.731 82.714 82.771 82.779 82.776 82.796 82.781 82.806 82.801 82.829 82.816 82.806 82.849 82.846 82.874 82.949 82.784 82.821 82.956 82.891 82.916 82.949 83.029 83.339 84.049 84.614 84.899 85.031 85.154 85.271 85.389 85.559 85.651 85.731 85.774 85.769 85.891 86.016 86.314 86.489 86.621 86.691 86.779 86.674 86.656 86.674 86.694 86.776 86.806 86.911 87.039 87.309 87.496 87.526 87.596 87.651 87.729 87.834 87.851 87.879 87.999 88.111 88.221 88.286 88.346 88.409 88.476 88.584 88.659 88.756 88.821 88.891 88.964 89.029 89.064 89.099 89.159 89.209 89.264 89.306 89.276 89.266 89.201 89.156 89.046 89.036 88.974 88.924 88.764 88.746 88.796 88.944 89.166 89.346 89.476 89.514 89.496 89.471 89.491 89.469 89.439 89.446 89.451 89.446 89.479 89.479 89.501 89.491 89.456 89.441 89.406 89.391 89.356 89.339 89.339 89.349 89.309 89.259 89.261 89.256 89.254 89.281 89.276 89.254 89.276 89.286 89.279 89.291 89.271 89.256 89.239 89.221 89.201 89.171 89.161 89.184 89.196 89.171 89.174 89.196 89.181 89.166 89.149 89.126 89.111 89.099 89.109 89.041 88.989 88.986 88.934 88.904 88.866 88.841 88.856 88.866 88.861 88.839 88.844 88.849 88.839 88.839 88.834 88.836 88.856 88.851 88.874 88.869 88.886 88.901 88.929 89.011 89.351 90.114 90.556 89.446 88.689 88.601 88.536 88.559 88.541 88.554 88.531 88.516
68.744 68.776 68.809 68.859 68.874 68.939 68.994 69.031 69.091 69.136 69.184 69.239 69.274 69.336 69.361 69.451 69.501 69.531 69.544 69.626 69.719 69.756 69.786 69.839 69.916 69.999 70.259 70.816 70.221 70.646 70.691 70.671 70.661 70.676 70.701 70.699 70.714 70.746 70.741 70.741 70.764 70.761 70.771 70.751 70.746 70.744 70.754 70.731 70.729 70.724 71.131 71.216 72.041 71.604 71.724 71.874 74.314 74.929 73.356 72.036 72.279 73.701 72.704 72.571 72.554 72.676 72.646 72.734 72.591 72.871 72.846 72.866 73.066 73.316 73.411 73.281 73.106 72.214 71.579 73.144 76.901 77.719 78.441 78.061 77.256 76.071 73.031 71.369 71.414 71.361 71.324 71.329 71.249 71.189 71.081 71.086 71.114 71.076 71.081 71.186 71.229 71.274 71.351 71.386 71.466 71.529 72.491 76.961 77.761 78.561 78.316 77.519 76.119 72.311 72.169 72.376 72.546 72.654 73.256 73.004 73.144 72.904 72.806 72.754 72.621 72.484 72.401 72.479 72.531 72.639 72.739 72.809 72.946 73.091 73.266 73.486 73.531 73.676 73.821 73.974 74.326 74.516 74.346 74.359 74.354 74.446 74.539 75.679 76.921 75.096 75.259 75.146 75.304 75.499 75.746 76.456 75.051 75.064 75.061 75.164 75.686 76.141 75.446 75.464 75.661 75.769 76.024 76.616 76.991 77.101 77.106 77.484 77.121 77.254 77.334 77.276 77.564 77.446 77.501 77.594 77.699 80.136 79.341 77.701 80.001 81.069 77.809 78.226 79.244 80.499 80.769 79.589 79.504 79.671 79.354 79.359 79.374 79.331 79.404 79.431 79.441 79.446 79.491 79.539 79.561 79.596 79.631 79.674 79.686 79.724 79.731 79.781 79.819 79.844 79.866 79.886 79.944 79.946 80.021 80.039 80.061 80.104 80.131 80.156 80.161 80.214 80.241 80.244 80.286 80.321 80.356 80.389 80.549 81.201 81.556 81.559 81.754 82.414 82.736 82.771 82.749 82.736 82.754 82.726 82.744 82.759 82.766 82.754 82.769 82.871 82.809 82.831 82.816 82.804 82.769 82.694 82.559 82.429 82.319 82.484 82.894 82.961 83.071 83.239 83.466 83.914 84.481 84.836 84.944 85.024 85.094 85.189 85.296 85.466 85.569 85.654 85.674 85.694 85.849 86.064 86.356 86.589 86.784 86.946 87.214 87.094 86.811 86.686 86.761 87.399 87.224 87.039 86.894 87.036 87.316 87.466 87.561 87.624 87.681 87.734 87.766 87.796 87.889 88.024 88.124 88.196 88.244 88.311 88.379 88.446 88.561 88.659 88.731 88.784 88.854 88.909 88.946 88.996 89.069 89.086 89.101 89.069 88.971 88.964 88.854 88.784 88.711 88.656 88.594 88.486 88.276 88.264 88.379 88.574 88.876 89.149 89.329 89.439 89.436 89.421 89.449 89.431 89.401 89.404 89.414 89.419 89.419 89.436 89.416 89.401 89.371 89.361 89.336 89.329 89.301 89.286 89.271 89.294 89.251 89.234 89.211 89.219 89.216 89.234 89.229 89.216 89.236 89.254 89.259 89.256 89.234 89.191 89.154 89.164 89.136 89.116 89.104 89.099 89.114 89.134 89.134 89.134 89.109 89.099 89.091 89.051 89.049 89.036 89.029 88.994 88.911 88.899 88.856 88.826 88.801 88.806 88.801 88.806 88.794 88.804 88.796 88.789 88.776 88.776 88.761 88.791 88.786 88.819 88.846 88.846 88.889 88.951 89.526 90.106 89.754 89.116 88.601 88.521 88.501 88.506 88.509 88.511 88.491 88.479 88.434 88.401
68.709 68.759 68.796 68.864 68.906 68.941 69.004 69.026 69.069 69.096 69.146 69.209 69.259 69.314 69.391 69.439 69.474 69.524 69.566 69.636 69.686 69.736 69.789 69.836 69.866 69.949 70.026 70.386 70.334 70.556 70.671 70.679 70.689 70.716 70.716 70.694 70.739 70.746 70.746 70.746 70.761 70.764 70.766 70.751 70.729 70.746 70.719 70.711 70.729 70.754 70.899 71.194 71.844 71.889 71.664 71.814 73.671 74.886 74.256 72.074 72.974 73.024 72.669 72.671 72.604 72.646 72.666 72.881 72.579 72.701 72.814 73.064 73.259 73.104 73.126 73.511 73.259 72.519 71.601 72.631 76.764 77.579 78.376 78.239 77.419 75.446 71.514 71.924 71.399 71.354 71.316 71.304 71.209 71.191 71.114 71.109 71.116 71.086 71.041 71.164 71.231 71.271 71.331 71.396 71.439 71.499 72.489 76.601 77.619 78.429 78.499 77.694 76.869 72.699 72.496 72.331 72.624 72.959 73.831 73.739 72.986 73.631 73.441 73.421 72.694 72.501 72.389 72.416 72.509 72.604 72.681 72.866 73.121 73.381 73.924 73.581 73.624 73.686 74.361 74.549 75.219 76.391 76.556 78.189 75.516 74.504 76.354 80.661 81.149 78.996 77.461 77.584 79.994 80.564 80.824 77.599 75.066 75.064 75.029 75.139 75.821 75.414 75.419 75.434 75.506 75.656 75.904 76.759 77.476 77.109 77.091 77.644 77.169 77.334 77.324 77.486 77.576 77.529 77.561 77.646 77.716 78.101 78.211 79.131 84.569 82.876 79.726 78.901 79.499 79.469 80.206 79.724 79.529 79.766 79.341 79.341 79.441 79.294 79.361 79.386 79.414 79.449 79.469 79.509 79.526 79.559 79.609 79.641 79.684 79.699 79.734 79.759 79.776 79.791 79.816 79.851 79.904 79.929 79.949 80.001 80.046 80.066 80.114 80.129 80.149 80.186 80.214 80.244 80.269 80.296 80.324 80.346 80.429 80.976 81.479 81.489 81.589 82.214 82.641 83.064 82.721 82.724 82.721 82.729 82.749 82.731 82.741 82.754 82.766 82.821 82.729 82.706 82.614 82.471 82.244 82.019 81.806 81.666 81.549 81.776 82.614 83.164 83.531 83.851 84.114 84.466 84.689 84.769 84.871 84.956 85.059 85.126 85.259 85.381 85.469 85.549 85.599 85.631 85.699 86.011 86.314 86.584 86.836 86.999 87.321 87.274 86.736 86.656 86.701 86.909 86.771 86.756 86.754 86.876 87.151 87.419 87.549 87.601 87.664 87.729 87.751 87.794 87.814 87.909 87.991 88.099 88.131 88.189 88.254 88.331 88.436 88.509 88.626 88.686 88.756 88.809 88.864 88.879 88.934 88.884 88.829 88.741 88.636 88.611 88.519 88.394 88.284 88.196 88.024 87.919 87.889 87.899 88.004 88.229 88.524 88.871 89.176 89.361 89.414 89.404 89.399 89.389 89.379 89.356 89.356 89.346 89.359 89.374 89.346 89.344 89.326 89.286 89.279 89.276 89.254 89.246 89.236 89.244 89.224 89.181 89.181 89.184 89.199 89.216 89.204 89.184 89.199 89.199 89.199 89.179 89.179 89.171 89.124 89.099 89.076 89.056 89.046 89.051 89.054 89.071 89.046 89.039 89.054 89.034 89.014 89.006 88.989 88.959 88.941 88.901 88.849 88.814 88.794 88.754 88.726 88.746 88.744 88.736 88.749 88.756 88.746 88.731 88.716 88.714 88.706 88.731 88.781 88.794 88.801 88.949 89.216 89.481 89.311 88.624 88.499 88.484 88.494 88.491 88.476 88.466 88.459 88.424 88.364 88.324 88.314 88.271
68.689 68.744 68.794 68.831 68.886 68.936 68.984 69.004 69.034 69.079 69.131 69.191 69.249 69.316 69.371 69.419 69.461 69.511 69.551 69.609 69.656 69.709 69.766 69.784 69.809 69.881 70.014 70.069 70.741 70.399 70.669 70.664 70.691 70.706 70.699 70.716 70.704 70.739 70.726 70.699 70.744 70.766 70.754 70.751 70.726 70.731 70.751 70.741 70.714 70.734 70.796 71.196 71.361 72.116 71.604 71.779 72.524 74.781 73.471 72.366 73.251 72.794 72.666 72.666 72.629 72.666 72.604 72.639 72.651 72.646 72.819 73.059 73.214 73.221 73.074 73.124 73.174 72.856 71.681 72.144 76.369 77.411 78.219 78.361 77.566 76.761 71.841 71.464 71.456 71.346 71.319 71.306 71.269 71.246 71.151 71.076 71.131 71.114 71.009 71.134 71.216 71.246 71.299 71.344 71.444 71.526 71.629 76.096 77.444 78.271 78.604 77.826 77.021 73.369 74.541 72.964 72.626 72.809 72.811 73.526 75.434 76.569 78.999 77.674 72.961 72.714 72.419 72.394 72.421 72.506 72.666 73.306 73.244 73.346 73.699 73.971 74.086 73.729 74.706 77.069 79.999 80.214 80.456 80.659 77.504 74.476 74.891 81.134 81.379 81.011 81.204 81.379 81.456 81.504 81.436 78.596 75.071 75.049 75.036 75.074 75.711 75.474 75.399 75.421 75.469 75.641 75.896 76.076 77.346 77.261 77.029 77.156 77.151 77.366 77.339 77.451 77.651 77.764 77.824 77.951 78.514 77.846 78.301 78.444 77.949 78.026 78.006 78.249 79.069 79.781 80.966 79.869 79.516 79.549 79.354 79.274 79.239 79.289 79.309 79.361 79.391 79.419 79.446 79.486 79.509 79.549 79.581 79.614 79.634 79.659 79.711 79.729 79.754 79.779 79.801 79.824 79.854 79.909 79.941 79.976 80.016 80.041 80.069 80.101 80.129 80.159 80.169 80.189 80.231 80.259 80.296 80.329 80.316 80.709 81.369 81.406 81.426 81.909 82.566 82.729 82.671 82.639 82.674 82.724 82.751 82.711 82.781 82.706 82.661 82.514 82.274 82.061 81.854 81.694 81.536 81.334 81.204 81.146 81.109 81.351 82.296 83.296 83.954 84.246 84.414 84.589 84.704 84.764 84.829 84.939 85.011 85.074 85.169 85.306 85.401 85.426 85.489 85.541 85.574 85.879 86.229 86.549 86.779 86.904 86.981 86.801 86.641 86.654 86.674 86.716 86.741 86.741 86.724 86.829 87.134 87.436 87.526 87.554 87.606 87.636 87.696 87.756 87.766 87.826 87.889 87.954 88.041 88.091 88.156 88.234 88.339 88.421 88.519 88.586 88.649 88.634 88.644 88.666 88.654 88.556 88.474 88.366 88.294 88.266 88.194 87.999 87.816 87.709 87.676 87.644 87.649 87.701 87.749 87.926 88.224 88.584 88.949 89.239 89.364 89.361 89.321 89.334 89.309 89.291 89.279 89.261 89.281 89.289 89.296 89.294 89.256 89.246 89.224 89.211 89.186 89.191 89.166 89.186 89.199 89.146 89.154 89.139 89.139 89.159 89.151 89.126 89.149 89.134 89.119 89.116 89.116 89.076 89.084 89.069 89.059 89.001 88.986 88.966 88.949 88.964 88.989 88.989 88.991 88.966 88.939 88.916 88.891 88.869 88.841 88.826 88.751 88.734 88.716 88.679 88.689 88.684 88.669 88.656 88.699 88.686 88.656 88.676 88.679 88.706 88.719 88.754 88.786 88.849 88.894 89.286 88.859 88.561 88.396 88.416 88.446 88.491 88.456 88.471 88.419 88.361 88.326 88.326 88.259 88.219 88.176 88.154
68.711 68.759 68.791 68.839 68.906 68.941 68.954 68.979 69.039 69.081 69.111 69.169 69.239 69.334 69.366 69.406 69.459 69.509 69.581 69.606 69.646 69.694 69.749 69.769 69.796 69.861 69.971 70.201 72.289 70.436 70.634 70.676 70.696 70.689 70.719 70.734 70.724 70.751 70.749 70.716 70.754 70.764 70.759 70.744 70.724 70.726 70.741 70.711 70.696 70.726 70.729 71.021 71.249 72.519 71.589 71.751 72.034 72.344 72.031 72.024 72.299 72.554 72.666 72.641 72.609 72.604 72.671 72.656 72.604 72.614 72.794 73.044 73.154 73.111 73.056 73.126 73.284 73.079 71.786 71.644 76.001 77.266 78.074 78.506 77.741 76.916 72.956 71.454 71.454 71.359 71.296 71.256 71.254 71.234 71.199 71.066 71.099 71.086 71.031 71.114 71.189 71.219 71.276 71.376 71.446 71.464 71.574 75.181 77.284 78.094 78.654 77.991 77.186 74.199 74.314 73.076 72.529 72.981 73.006 73.721 78.446 79.591 79.634 78.501 73.444 72.806 72.471 72.311 72.374 72.424 72.721 73.486 73.436 73.741 76.231 79.514 79.239 74.834 74.046 77.391 81.094 81.296 81.474 81.446 79.251 74.444 74.509 80.911 81.571 81.471 81.286 81.119 80.899 80.951 81.536 79.256 75.126 75.026 75.004 75.019 75.226 75.321 75.396 75.389 75.439 75.584 75.819 76.014 76.651 76.946 77.074 76.969 77.026 77.301 77.719 77.841 77.761 77.659 77.741 77.739 78.479 77.819 77.834 78.924 77.979 78.134 78.266 78.974 79.806 81.241 81.366 79.969 79.426 79.301 79.244 79.321 79.271 79.249 79.299 79.356 79.371 79.386 79.419 79.469 79.481 79.514 79.534 79.574 79.606 79.651 79.661 79.699 79.734 79.736 79.776 79.814 79.829 79.879 79.921 79.949 79.981 80.026 80.041 80.056 80.076 80.104 80.139 80.144 80.186 80.234 80.259 80.261 80.274 80.491 81.179 81.361 81.329 81.641 82.399 82.661 82.771 82.774 82.739 82.651 82.559 82.479 82.319 82.121 81.939 81.744 81.499 81.349 81.184 81.139 81.089 81.096 81.106 81.086 81.081 81.196 81.896 82.929 83.786 84.211 84.396 84.549 84.659 84.739 84.806 84.901 84.936 84.989 85.089 85.206 85.316 85.399 85.439 85.479 85.484 85.701 86.109 86.454 86.664 86.681 86.616 86.604 86.639 86.681 86.669 86.706 86.716 86.776 86.826 87.016 87.361 87.489 87.461 87.484 87.516 87.576 87.629 87.659 87.706 87.746 87.831 87.864 87.959 88.004 88.064 88.149 88.261 88.339 88.426 88.451 88.456 88.431 88.419 88.364 88.311 88.186 88.066 87.954 87.851 87.771 87.699 87.634 87.561 87.519 87.454 87.446 87.434 87.511 87.586 87.661 87.979 88.324 88.726 89.071 89.281 89.294 89.279 89.281 89.261 89.246 89.209 89.191 89.191 89.199 89.211 89.219 89.221 89.179 89.174 89.139 89.141 89.124 89.126 89.144 89.169 89.136 89.124 89.084 89.094 89.071 89.044 89.061 89.064 89.074 89.071 89.051 89.016 88.999 88.999 88.996 88.984 88.941 88.919 88.894 88.874 88.889 88.904 88.901 88.876 88.879 88.871 88.826 88.801 88.804 88.774 88.736 88.676 88.634 88.649 88.634 88.626 88.614 88.591 88.574 88.599 88.604 88.609 88.631 88.666 88.696 88.774 89.289 88.929 88.844 88.826 88.399 88.346 88.336 88.361 88.379 88.376 88.396 88.394 88.381 88.341 88.294 88.249 88.236 88.126 88.104 88.081 88.064
68.731 68.766 68.771 68.836 68.874 68.944 68.969 68.994 69.029 69.044 69.101 69.171 69.216 69.296 69.324 69.389 69.424 69.481 69.516 69.574 69.616 69.679 69.734 69.739 69.774 69.824 69.896 69.979 71.684 71.036 70.531 70.671 70.684 70.701 70.701 70.731 70.719 70.724 70.764 70.736 70.729 70.734 70.756 70.721 70.736 70.749 70.736 70.739 70.726 70.741 70.734 70.894 71.224 72.181 71.809 71.709 71.851 72.206 72.776 72.059 72.124 72.454 72.651 72.549 72.584 72.619 72.624 72.631 72.659 72.619 72.741 72.984 73.124 73.091 73.369 73.159 73.211 73.171 72.036 71.611 74.944 77.099 77.906 78.526 77.876 77.081 73.999 71.454 71.441 71.361 71.309 71.236 71.231 71.206 71.166 71.076 71.076 71.079 71.034 71.074 71.164 71.224 71.279 71.349 71.731 71.554 71.586 74.221 77.149 77.949 78.656 78.126 77.339 74.336 72.749 72.351 72.554 73.089 73.341 73.076 77.551 79.374 79.816 78.704 74.564 72.844 72.439 72.291 72.329 72.421 72.584 74.824 75.334 75.989 77.744 79.869 79.706 75.511 73.766 76.499 81.274 81.049 80.849 80.619 79.299 74.766 74.834 79.941 79.061 78.004 77.789 76.464 75.531 80.346 81.116 78.856 75.134 74.959 74.994 75.006 75.126 75.354 77.359 75.541 75.486 75.591 75.749 75.914 76.559 76.699 76.926 77.024 76.996 77.036 77.241 77.534 77.561 77.619 77.731 77.694 77.731 77.791 77.821 78.914 78.069 78.264 78.234 79.111 78.939 79.526 80.701 81.019 79.411 79.309 79.216 79.311 79.174 79.194 79.261 79.324 79.341 79.369 79.381 79.424 79.446 79.471 79.501 79.546 79.594 79.624 79.654 79.684 79.701 79.714 79.759 79.786 79.829 79.854 79.851 79.899 79.954 79.991 79.981 80.019 80.034 80.056 80.071 80.109 80.134 80.179 80.209 80.246 80.239 80.334 81.001 81.211 81.211 81.416 82.086 82.496 82.754 82.521 82.429 82.216 81.969 81.754 81.561 81.384 81.239 81.136 81.041 81.016 81.054 81.071 81.066 81.089 81.089 81.064 81.266 81.139 81.631 82.619 83.631 84.121 84.334 84.481 84.589 84.659 84.729 84.826 84.891 84.899 84.999 85.116 85.246 85.341 85.389 85.434 85.376 85.539 85.966 86.294 86.484 86.516 86.559 86.651 86.696 86.696 86.714 86.736 86.776 87.321 88.094 88.194 87.796 87.646 87.424 87.411 87.461 87.549 87.564 87.566 87.651 87.694 87.774 87.846 87.909 87.951 88.021 88.074 88.164 88.214 88.256 88.251 88.241 88.179 88.066 87.969 87.884 88.134 87.676 87.539 87.506 87.466 87.471 87.421 87.426 87.391 87.336 87.331 87.341 87.374 87.504 87.539 87.751 88.111 88.516 88.906 89.164 89.236 89.211 89.221 89.189 89.151 89.131 89.111 89.106 89.114 89.139 89.136 89.131 89.114 89.094 89.086 89.079 89.079 89.069 89.071 89.119 89.084 89.039 89.021 89.004 89.026 88.999 89.014 88.991 89.006 89.024 89.001 88.976 88.976 88.944 88.946 88.951 88.909 88.869 88.824 88.814 88.804 88.806 88.791 88.791 88.791 88.776 88.731 88.706 88.711 88.679 88.661 88.631 88.556 88.566 88.579 88.546 88.534 88.521 88.536 88.554 88.561 88.589 88.644 88.854 89.241 89.819 89.451 88.404 88.321 88.291 88.259 88.271 88.299 88.294 88.301 88.256 88.246 88.264 88.254 88.229 88.199 88.169 88.189 88.094 88.034 88.001 87.956
68.706 68.741 68.766 68.799 68.856 68.899 68.931 68.959 69.001 69.024 69.096 69.161 69.189 69.259 69.314 69.379 69.434 69.466 69.481 69.564 69.586 69.641 69.691 69.724 69.749 69.746 69.804 69.919 70.039 70.846 70.336 70.676 70.699 70.694 70.706 70.709 70.734 70.726 70.729 70.739 70.746 70.734 70.731 70.744 70.729 70.744 70.746 70.729 70.744 70.726 70.719 70.731 71.146 71.641 72.346 71.639 71.791 72.456 74.861 73.446 72.209 72.509 72.649 72.524 72.561 72.621 72.636 72.656 72.646 72.594 72.666 72.939 73.094 73.069 73.084 73.104 73.249 73.251 72.364 71.726 73.511 76.946 77.756 78.454 78.049 77.231 74.791 71.559 71.549 71.414 71.304 71.244 71.214 71.166 71.199 71.049 71.066 71.084 70.981 71.059 71.224 71.231 71.249 71.319 72.219 71.786 71.526 73.044 76.961 77.799 78.586 78.299 77.481 75.111 72.599 72.444 72.464 72.844 72.781 72.911 76.024 79.124 79.899 78.921 75.626 72.629 72.369 72.361 72.464 72.544 72.644 78.309 79.511 79.756 79.956 80.101 79.851 76.191 73.709 74.646 79.184 78.564 78.361 77.551 74.859 74.454 74.716 74.601 74.984 75.391 75.151 75.124 75.316 75.311 75.136 75.264 75.081 74.969 74.984 74.981 75.041 75.209 76.946 75.319 75.491 75.514 75.461 75.619 76.749 76.624 76.704 76.839 76.874 76.961 77.056 77.186 77.444 77.519 77.644 77.591 77.591 77.609 77.644 78.476 78.044 78.389 78.429 79.029 78.616 79.576 80.011 80.561 79.441 79.376 79.196 79.186 79.111 79.206 79.224 79.264 79.321 79.344 79.354 79.401 79.419 79.446 79.484 79.521 79.551 79.589 79.599 79.661 79.674 79.711 79.744 79.761 79.801 79.816 79.791 79.864 79.911 79.934 79.936 79.964 79.996 80.029 80.029 80.056 80.096 80.151 80.196 80.196 80.204 80.321 80.816 81.056 81.111 81.209 81.744 82.136 82.091 81.886 81.681 81.466 81.271 81.131 81.064 81.031 81.046 81.024 81.014 81.021 81.044 81.191 81.019 81.019 81.026 81.074 81.069 81.104 81.389 82.301 83.299 84.006 84.236 84.414 84.529 84.606 84.649 84.721 84.779 84.826 84.926 85.034 85.139 85.256 85.326 85.369 85.326 85.394 85.781 86.049 86.204 86.369 86.621 86.754 86.911 86.761 86.736 86.771 86.971 87.881 87.946 87.891 87.856 87.706 87.386 87.346 87.406 87.474 87.456 87.519 87.596 87.649 87.696 87.741 87.786 87.876 87.941 87.981 87.964 88.011 88.001 87.966 87.904 87.816 87.654 87.621 87.606 87.384 87.391 87.351 87.384 87.374 87.351 87.311 87.304 87.294 87.299 87.311 87.334 87.316 87.436 87.486 87.586 87.899 88.294 88.724 89.034 89.156 89.134 89.126 89.101 89.079 89.064 89.059 89.041 89.021 89.029 89.036 89.036 89.031 89.036 89.036 89.044 89.029 88.991 89.021 89.024 89.014 88.954 88.931 88.939 88.964 88.971 88.936 88.946 88.954 88.964 88.934 88.926 88.941 88.886 88.894 88.899 88.866 88.796 88.774 88.741 88.721 88.729 88.729 88.721 88.711 88.669 88.634 88.601 88.606 88.579 88.564 88.566 88.499 88.494 88.526 88.531 88.506 88.499 88.526 88.541 88.596 88.831 89.479 89.536 88.941 88.384 88.196 88.216 88.221 88.204 88.191 88.174 88.191 88.186 88.174 88.111 88.104 88.141 88.126 88.104 88.126 88.076 88.006 87.999 87.924 87.904 87.839
68.699 68.701 68.724 68.786 68.816 68.841 68.874 68.921 68.966 69.036 69.056 69.134 69.166 69.239 69.311 69.349 69.404 69.429 69.464 69.529 69.576 69.591 69.659 69.689 69.689 69.699 69.779 69.859 70.004 70.264 70.206 70.619 70.681 70.704 70.684 70.704 70.706 70.709 70.724 70.719 70.749 70.744 70.746 70.744 70.761 70.749 70.754 70.716 70.729 70.721 70.729 70.716 70.979 71.369 72.639 71.749 71.734 72.861 74.784 74.919 73.314 73.384 72.606 72.516 72.546 72.624 72.621 72.669 72.629 72.581 72.626 72.889 73.126 73.104 73.086 73.166 73.296 73.291 72.774 71.831 73.016 76.796 77.601 78.369 78.221 77.391 75.046 72.059 72.434 71.596 71.354 71.291 71.254 71.226 71.196 71.126 72.154 71.076 70.999 71.024 71.129 71.231 71.281 71.299 71.604 71.601 71.996 72.836 76.799 77.636 78.446 78.456 77.641 76.856 73.461 72.864 72.399 72.619 72.724 72.756 75.466 78.921 79.871 78.724 75.054 72.641 72.641 72.569 72.556 72.659 72.759 78.199 79.994 79.851 79.649 79.264 78.706 76.304 73.996 73.899 74.656 74.419 74.876 74.386 74.399 74.321 74.641 74.656 74.751 74.884 75.006 75.014 75.071 75.149 75.089 75.169 75.051 74.946 74.974 74.959 74.961 75.094 75.191 75.349 75.399 75.481 75.501 76.094 76.196 76.469 76.571 76.756 76.729 76.771 76.816 76.891 77.174 77.401 77.439 77.396 77.409 77.334 77.511 77.864 78.221 78.501 78.384 78.651 79.064 78.691 79.736 80.404 79.536 79.389 79.214 79.156 79.131 79.161 79.174 79.239 79.271 79.314 79.331 79.381 79.409 79.426 79.451 79.479 79.509 79.564 79.594 79.629 79.649 79.689 79.729 79.739 79.771 79.784 79.781 79.789 79.844 79.891 79.911 79.919 79.951 80.006 80.026 80.054 80.084 80.111 80.149 80.171 80.249 80.436 80.744 80.956 81.014 81.066 81.304 81.464 81.366 81.161 80.994 80.984 81.016 81.021 81.041 80.986 81.044 80.986 80.984 81.011 81.004 81.001 80.991 80.989 81.011 81.014 81.054 81.294 81.249 81.999 82.991 83.836 84.111 84.286 84.399 84.486 84.536 84.636 84.686 84.726 84.824 84.929 85.019 85.149 85.244 85.304 85.311 85.294 85.599 85.809 85.966 86.386 86.969 87.414 87.864 87.534 87.146 87.449 87.994 87.929 87.891 87.861 87.791 87.641 87.326 87.301 87.364 87.351 87.414 87.464 87.509 87.574 87.589 87.596 87.656 87.736 87.799 87.781 87.759 87.734 87.666 87.556 87.494 87.319 87.249 87.234 87.229 87.269 87.306 87.299 87.264 87.219 87.226 87.251 87.271 87.259 87.276 87.311 87.314 87.329 87.331 87.386 87.449 87.736 88.071 88.521 88.866 89.041 89.074 89.054 89.026 89.004 88.994 88.984 88.969 88.964 88.951 88.941 88.966 88.956 88.979 88.964 88.959 88.936 88.934 88.924 88.936 88.936 88.906 88.884 88.904 88.884 88.896 88.904 88.894 88.914 88.896 88.904 88.899 88.889 88.866 88.829 88.836 88.801 88.751 88.709 88.681 88.649 88.654 88.646 88.631 88.604 88.554 88.516 88.481 88.479 88.481 88.486 88.471 88.441 88.421 88.441 88.476 88.486 88.499 88.579 88.986 89.624 89.514 88.799 88.151 88.099 88.111 88.116 88.109 88.111 88.091 88.069 88.051 88.036 88.061 88.054 88.006 87.981 88.026 88.026 88.001 87.974 87.941 87.921 87.916 87.814 87.786 87.719
68.639 68.664 68.696 68.741 68.786 68.829 68.854 68.921 68.956 69.004 69.064 69.119 69.149 69.229 69.291 69.346 69.379 69.419 69.451 69.511 69.549 69.591 69.624 69.666 69.676 69.691 69.791 69.839 69.891 70.299 70.711 70.469 70.661 70.699 70.694 70.684 70.686 70.691 70.719 70.721 70.739 70.749 70.756 70.744 70.749 70.746 70.756 70.729 70.744 70.726 70.744 70.711 70.796 71.181 72.251 71.551 71.681 71.911 74.439 75.019 73.516 72.654 72.651 72.559 72.539 72.636 72.636 72.679 72.664 72.661 72.619 72.824 73.186 73.276 73.039 73.194 73.311 73.251 72.859 71.939 72.634 76.656 77.436 78.254 78.379 77.546 76.714 72.246 71.424 71.369 71.321 71.281 71.209 71.214 71.164 71.286 74.481 71.551 71.026 70.949 71.076 71.184 71.266 71.316 71.364 72.274 73.559 73.594 76.639 77.444 78.286 78.564 77.806 76.996 73.546 71.974 72.316 72.556 72.664 72.744 73.381 75.374 76.086 73.509 72.919 72.924 72.779 72.626 72.679 72.761 72.844 75.334 76.469 76.514 75.414 73.821 73.659 73.631 73.751 73.911 74.016 74.309 75.121 76.284 74.364 74.274 74.401 74.514 74.609 74.741 74.844 74.894 74.964 75.319 75.059 75.464 75.054 74.946 74.929 74.976 74.914 75.046 75.206 75.511 75.489 75.364 75.476 75.551 75.956 76.251 76.426 76.551 76.564 76.534 76.539 76.624 76.674 77.254 77.291 77.846 78.274 79.034 77.449 77.659 77.896 79.091 78.574 78.621 78.546 78.476 79.894 79.759 79.486 79.289 79.186 79.149 79.114 79.104 79.149 79.211 79.249 79.291 79.321 79.324 79.364 79.406 79.434 79.471 79.486 79.539 79.576 79.579 79.601 79.649 79.696 79.719 79.731 79.724 79.734 79.769 79.799 79.836 79.879 79.899 79.941 79.951 80.004 79.999 80.019 80.046 80.099 80.141 80.281 80.559 80.874 80.919 80.964 80.956 80.951 80.994 81.209 80.954 80.969 81.096 80.986 80.956 80.954 81.076 80.959 80.971 80.964 80.974 80.971 80.956 80.956 81.004 80.954 81.024 81.021 81.196 81.139 81.669 82.639 83.561 83.986 84.129 84.266 84.374 84.419 84.529 84.584 84.574 84.699 84.824 84.899 85.011 85.129 85.244 85.264 85.266 85.411 85.611 86.011 86.636 87.506 87.841 87.884 87.864 88.099 88.084 87.844 87.811 87.814 87.821 87.629 87.374 87.204 87.196 87.229 87.264 87.336 87.374 87.391 87.471 87.491 87.519 87.536 87.586 87.701 87.566 87.509 87.414 87.314 87.311 87.129 87.111 87.099 87.146 87.179 87.216 87.196 87.196 87.174 87.184 87.204 87.221 87.276 87.249 87.289 87.324 87.294 87.299 87.314 87.369 87.376 87.586 87.891 88.301 88.691 88.939 89.004 88.984 88.941 88.929 88.909 88.896 88.894 88.891 88.899 88.889 88.879 88.871 88.864 88.871 88.841 88.844 88.859 88.851 88.861 88.874 88.866 88.849 88.836 88.836 88.836 88.836 88.839 88.871 88.851 88.851 88.814 88.794 88.779 88.739 88.741 88.719 88.676 88.619 88.604 88.574 88.544 88.539 88.509 88.481 88.469 88.409 88.389 88.389 88.386 88.396 88.399 88.391 88.379 88.409 88.421 88.434 89.034 89.621 89.566 88.484 88.034 87.984 88.004 88.031 88.026 88.006 87.991 87.954 87.954 87.946 87.931 87.931 87.911 87.909 87.899 87.881 87.904 87.914 87.886 87.854 87.804 87.761 87.754 87.711 87.646 87.581
68.616 68.654 68.694 68.681 68.746 68.816 68.859 68.899 68.946 69.036 69.069 69.101 69.141 69.219 69.299 69.341 69.371 69.406 69.409 69.474 69.521 69.564 69.621 69.661 69.664 69.701 69.766 69.826 69.886 71.084 72.701 70.244 70.701 70.701 70.691 70.671 70.689 70.704 70.716 70.719 70.721 70.731 70.731 70.754 70.751 70.764 70.764 70.749 70.746 70.729 70.714 70.704 70.711 70.944 71.341 71.476 71.651 71.796 73.854 74.726 73.726 73.249 72.714 72.549 72.516 72.581 72.626 72.669 72.704 72.676 72.616 72.774 73.016 73.061 73.019 73.134 73.189 73.261 73.159 72.069 72.264 76.419 77.294 78.114 78.489 77.694 76.871 73.889 71.626 71.539 71.339 71.289 71.271 71.166 71.134 71.166 74.159 72.544 71.006 71.009 71.059 71.164 71.236 71.304 71.361 71.554 71.536 71.579 75.686 77.314 78.116 78.636 77.964 77.159 74.266 72.011 72.236 72.536 72.649 72.774 73.139 72.949 72.856 72.886 72.879 72.846 72.731 72.724 72.789 72.861 72.944 73.429 73.941 73.641 73.581 73.969 73.674 73.666 73.624 73.746 73.881 74.126 76.644 79.566 75.241 74.271 74.436 74.541 74.759 74.806 74.771 75.201 76.451 76.021 75.424 75.844 75.036 74.994 74.924 74.919 74.881 74.999 75.661 75.269 75.374 75.324 75.396 75.451 75.731 75.876 76.271 76.364 76.346 76.379 76.419 76.536 76.594 80.339 81.716 82.889 83.114 82.419 77.349 77.414 79.051 80.604 82.649 82.901 82.379 80.591 79.091 79.961 79.524 79.326 79.179 79.146 79.099 79.064 79.074 79.174 79.234 79.274 79.271 79.296 79.321 79.356 79.384 79.419 79.471 79.489 79.526 79.566 79.596 79.611 79.654 79.661 79.686 79.699 79.724 79.771 79.769 79.809 79.841 79.861 79.884 79.886 79.909 79.969 80.049 80.169 80.326 80.506 80.634 80.809 80.866 80.884 80.901 80.861 80.894 80.879 80.886 80.906 80.914 81.121 80.899 80.881 80.926 80.944 80.924 80.919 80.919 80.939 80.961 80.954 80.939 80.954 80.956 80.969 81.024 81.111 81.051 81.419 82.261 83.259 83.839 84.001 84.176 84.249 84.334 84.444 84.479 84.464 84.559 84.696 84.819 84.914 85.061 85.164 85.181 85.201 85.301 85.599 86.109 86.856 87.551 87.864 87.844 87.799 87.806 87.749 87.699 87.589 87.539 87.484 87.266 87.131 87.134 87.111 87.141 87.196 87.229 87.271 87.306 87.334 87.411 87.426 87.636 87.389 87.491 87.356 87.234 87.136 87.001 87.009 87.009 87.046 87.109 87.071 87.066 87.079 87.124 87.166 87.164 87.186 87.234 87.254 87.264 87.279 87.274 87.284 87.284 87.301 87.264 87.299 87.346 87.466 87.731 88.114 88.494 88.776 88.934 88.931 88.901 88.861 88.866 88.849 88.854 88.829 88.826 88.841 88.819 88.809 88.779 88.781 88.766 88.769 88.796 88.789 88.794 88.824 88.821 88.791 88.779 88.754 88.774 88.774 88.776 88.764 88.776 88.766 88.746 88.746 88.724 88.716 88.699 88.649 88.604 88.564 88.514 88.471 88.424 88.431 88.389 88.384 88.349 88.316 88.299 88.306 88.301 88.306 88.324 88.344 88.311 88.356 88.496 88.494 89.161 88.204 87.909 87.869 87.884 87.891 87.884 87.874 87.891 87.831 87.811 87.839 87.859 87.849 87.816 87.806 87.796 87.796 87.804 87.766 87.751 87.771 87.754 87.744 87.706 87.684 87.691 87.584 87.499 87.449
